ply
format ascii 1.0
element vertex 1201
property float x
property float y
property float z
property uchar red
property uchar green
property uchar blue
end_header
-3.522575 0.647422 9.129708 153 170 216 
-3.486012 1.295866 9.034907 146 162 205 
-3.486012 1.295866 9.034907 146 162 205 
-3.501520 1.212674 9.083247 147 164 208 
-3.465789 1.848781 8.990899 140 157 200 
-3.480133 1.270969 9.036416 147 164 208 
-3.490963 1.276162 9.073067 147 164 208 
-3.514314 0.794538 9.142458 149 166 211 
-3.495723 1.035490 9.094158 151 168 212 
-3.510350 0.643221 9.158209 152 169 215 
-3.499215 0.630645 9.181320 154 168 215 
-3.277973 2.068041 8.658531 36 51 82 
-3.277973 2.068041 8.658531 36 51 82 
-3.234655 2.096127 8.551862 17 22 29 
-3.512379 -0.338934 9.296226 159 175 226 
-3.482769 -0.254375 9.271097 156 173 219 
-3.546825 -1.329788 9.453016 164 180 232 
-3.202215 2.089569 8.564762 46 38 42 
-3.513410 -1.277850 9.408556 165 181 233 
-3.499369 -1.257387 9.389503 166 182 234 
-3.517148 -1.936563 9.512878 166 183 235 
-3.178681 2.094076 8.610501 82 66 77 
-3.504529 -1.959867 9.544442 168 184 236 
-3.487648 -1.940408 9.506750 165 182 234 
-3.526985 -2.671048 9.644988 167 185 237 
-3.521516 -2.696252 9.628861 167 183 237 
-3.479726 -1.963111 9.512929 166 183 235 
-2.095227 1.438906 5.836775 86 54 75 
-2.079332 1.490163 5.838658 119 81 101 
-3.148764 1.326531 8.868893 110 122 164 
-3.112523 1.444165 8.820703 137 153 197 
-3.111692 1.358875 8.845567 136 155 200 
-3.108351 1.298928 8.836327 138 155 198 
-3.108477 1.199810 8.854800 140 155 201 
-2.031323 1.429537 5.799305 93 68 89 
-3.119342 0.793172 8.913334 127 138 182 
-3.099016 1.043184 8.873458 143 158 202 
-3.108856 0.889281 8.911041 143 160 204 
-2.010800 1.411486 5.782235 95 69 94 
-3.092390 0.474306 8.919689 138 155 198 
-3.120554 0.257959 9.010509 112 118 165 
-3.125996 0.056126 9.045335 96 109 149 
-3.087457 0.118336 8.980901 137 151 196 
-3.095278 0.015332 9.041956 133 142 185 
-3.090429 -0.237055 9.028018 123 129 176 
-3.094665 -0.399257 9.079033 124 131 180 
-3.011472 0.762400 8.852603 155 172 219 
-3.124695 -1.304039 9.188027 49 63 92 
-3.114653 -1.313377 9.207601 49 56 85 
-3.095583 -1.041629 9.160661 91 98 138 
-3.036664 -0.393948 9.033728 157 172 220 
-3.100312 -1.514068 9.234849 59 63 99 
-2.970033 0.174403 8.853383 161 175 224 
-3.072244 -1.360535 9.171019 95 103 149 
-3.095919 -1.731250 9.242755 31 39 71 
-3.062118 -1.119731 9.150089 137 149 197 
-3.107229 -1.689836 9.286047 45 46 78 
-3.079706 -1.806596 9.243604 84 84 121 
-3.104235 -2.139550 9.328263 47 65 94 
-3.097375 -2.086653 9.308271 49 59 87 
-3.070171 -1.603767 9.225945 114 130 174 
-2.984752 -0.365180 8.985944 159 175 225 
-3.020874 -0.986374 9.105334 160 173 225 
-3.020874 -0.986374 9.105334 160 173 225 
-1.884788 1.472485 5.686549 107 65 83 
-1.863586 1.583450 5.628978 115 84 107 
-1.863586 1.583450 5.628978 115 84 107 
-1.842306 1.623214 5.565074 152 105 125 
-3.056784 -1.942112 9.255980 109 119 159 
-3.086099 -2.385474 9.356087 54 71 97 
-2.998281 -0.979154 9.096735 164 176 227 
-2.998281 -0.979154 9.096735 164 176 227 
-2.987291 -0.994336 9.063751 165 178 230 
-3.101320 -2.863139 9.413274 56 73 114 
-3.087419 -2.634588 9.402278 55 68 100 
-2.835596 1.267978 8.639188 103 87 108 
-2.852676 0.923437 8.701147 157 179 220 
-2.852676 0.923437 8.701147 157 179 220 
-1.849247 1.403006 5.678441 120 76 93 
-2.846744 0.181287 8.790201 164 178 225 
-1.828135 1.400393 5.651349 120 74 91 
-1.828135 1.400393 5.651349 120 74 91 
-2.847090 0.225915 8.801075 160 174 219 
-1.830281 1.329525 5.670553 83 65 80 
-2.849479 -0.371154 8.878853 164 180 231 
-2.849479 -0.371154 8.878853 164 180 231 
-2.796727 0.488470 8.723393 123 106 133 
-2.820984 0.048404 8.799438 157 173 216 
-2.820984 0.048404 8.799438 157 173 216 
-2.868653 -0.834606 8.969894 165 181 233 
-1.755392 1.617128 5.494721 153 107 130 
-2.796439 0.184427 8.782280 118 103 122 
-2.829617 -0.383202 8.907243 165 180 232 
-2.851738 -1.023172 8.998723 166 182 234 
-2.770823 0.220272 8.741531 117 95 108 
-2.770823 0.220272 8.741531 117 95 108 
-2.800889 -0.367521 8.867614 154 172 215 
-2.868926 -2.137992 9.139346 170 186 238 
-2.767489 -0.353651 8.832720 119 98 126 
-2.833923 -1.759541 9.048287 169 185 237 
-2.832328 -1.710202 9.052361 168 184 235 
-2.832328 -1.710202 9.052361 168 184 235 
-2.808757 -1.023732 8.976034 166 182 234 
-2.761367 -0.388981 8.833620 117 98 128 
-2.644723 1.265667 8.508997 98 85 111 
-2.637196 1.248714 8.514392 106 96 122 
-1.721633 1.387089 5.565271 98 72 95 
-2.786900 -1.722398 9.032975 169 185 236 
-2.689230 0.019757 8.734048 114 88 110 
-1.619688 1.726739 5.273986 118 75 92 
-2.608783 1.146387 8.492389 117 100 119 
-2.687472 -0.401203 8.770263 114 95 122 
-2.651739 0.209865 8.663026 114 92 115 
-2.614690 0.883119 8.541567 110 92 111 
-1.599481 1.730869 5.226149 117 76 94 
-2.741054 -1.716244 8.968881 174 191 238 
-2.586442 1.260357 8.469474 103 93 118 
-2.592777 1.042457 8.490221 102 92 119 
-2.666677 -0.604150 8.795914 121 102 126 
-1.585949 1.738076 5.238089 121 79 98 
-2.561725 1.063916 8.458634 94 83 100 
-2.674306 -0.973270 8.832293 117 99 125 
-2.727096 -1.795072 9.019154 119 128 169 
-2.561402 1.105010 8.467650 111 93 112 
-2.565826 1.016624 8.482560 100 92 119 
-2.565826 1.016624 8.482560 100 92 119 
-2.602268 0.219407 8.613628 100 78 99 
-2.602268 0.219407 8.613628 100 78 99 
-2.557088 0.970980 8.484138 95 86 113 
-2.559192 0.710275 8.501217 119 105 124 
-2.658953 -1.031643 8.845431 126 103 123 
-2.670905 -1.323305 8.896646 98 85 104 
-2.532542 1.035521 8.453363 100 87 116 
-2.640878 -1.044931 8.828151 126 101 120 
-2.648268 -1.343369 8.886016 116 92 110 
-2.648268 -1.343369 8.886016 116 92 110 
-2.714817 -2.721798 9.111931 177 191 244 
-1.626249 1.564341 5.455418 130 85 106 
-2.507140 1.253698 8.419413 98 89 116 
-2.651481 -1.567970 8.918725 129 105 120 
-2.534118 0.459497 8.520674 102 93 122 
-2.509858 1.052984 8.449255 71 62 85 
-2.686487 -1.964256 9.047812 127 110 128 
-2.686487 -1.964256 9.047812 127 110 128 
-2.676228 -2.190675 9.014334 133 112 132 
-1.641153 1.318854 5.525295 116 69 87 
-1.641153 1.318854 5.525295 116 69 87 
-2.545895 0.217178 8.570922 106 82 110 
-2.545895 0.217178 8.570922 106 82 110 
-2.545895 0.217178 8.570922 106 82 110 
-2.502889 1.128002 8.435984 108 90 109 
-2.591555 -0.612033 8.736288 133 107 121 
-2.591555 -0.612033 8.736288 133 107 121 
-2.658614 -1.916409 8.965289 129 111 130 
-2.658614 -1.916409 8.965289 129 111 130 
-2.516027 0.929176 8.490769 100 90 115 
-2.673369 -2.164200 9.026752 129 104 118 
-2.493848 1.026619 8.426027 86 75 101 
-2.511828 0.860769 8.517901 114 105 131 
-2.543066 -0.384470 8.646327 116 96 113 
-2.637947 -2.177158 8.983780 117 93 111 
-2.637947 -2.177158 8.983780 117 93 111 
-2.572787 -1.033652 8.759683 140 118 139 
-2.552449 -0.787213 8.710897 120 96 110 
-2.641892 -2.740736 9.088502 125 93 111 
-2.520896 -0.402644 8.678348 114 94 106 
-1.592751 1.455081 5.483031 123 77 95 
-2.501240 -0.209234 8.620696 123 106 125 
-2.478616 0.204888 8.542484 117 97 116 
-2.472773 -0.009335 8.543810 113 99 125 
-2.472773 -0.009335 8.543810 113 99 125 
-2.537406 -1.167272 8.779783 121 98 121 
-1.579245 1.371058 5.470387 99 74 96 
-2.467097 0.009997 8.556409 112 98 120 
-2.557372 -1.951483 8.883797 125 104 121 
-2.573645 -2.180847 8.940462 126 102 118 
-2.573645 -2.180847 8.940462 126 102 118 
-2.149576 1.164851 7.482947 111 74 86 
-2.572955 -1.938065 8.961228 117 95 117 
-2.561132 -2.154191 8.932040 127 100 117 
-2.558102 -2.200793 8.920965 123 94 112 
-2.531473 -1.566365 8.838362 128 105 123 
-2.524837 -1.552901 8.848334 113 89 107 
-2.390294 0.899520 8.384302 106 97 119 
-2.390294 0.899520 8.384302 106 97 119 
-2.467045 -0.810283 8.666348 123 95 117 
-1.532221 1.560123 5.396327 101 75 99 
-2.390516 0.441372 8.438884 86 76 100 
-2.384184 0.284580 8.416672 109 93 119 
-2.471940 -1.574560 8.797744 128 108 128 
-2.354041 0.549223 8.395978 115 105 131 
-2.379382 -0.038607 8.508990 109 91 116 
-2.464201 -1.920047 8.815642 115 92 110 
-2.464201 -1.920047 8.815642 115 92 110 
-2.338031 0.693822 8.371153 110 87 105 
-2.383798 -0.391552 8.547327 122 101 116 
-2.068962 1.137545 7.427141 123 86 99 
-2.375691 -0.420011 8.551523 134 116 132 
-2.375691 -0.420011 8.551523 134 116 132 
-2.306766 0.989789 8.323995 97 81 92 
-2.300739 0.837732 8.302215 103 90 116 
-2.436592 -1.767699 8.808595 126 104 126 
-2.392405 -1.157041 8.658147 120 107 127 
-2.063428 1.065620 7.475569 100 90 114 
-2.355302 -0.400360 8.545172 138 117 130 
-2.454836 -2.393742 8.911040 125 106 124 
-2.325113 0.186983 8.434843 124 104 132 
-2.449670 -2.579876 8.915110 126 99 114 
-2.336830 -0.237445 8.522461 123 102 124 
-2.336830 -0.237445 8.522461 123 102 124 
-2.264321 0.474728 8.312386 105 81 95 
-2.356792 -1.164280 8.665652 115 90 112 
-2.070767 0.945773 7.611854 94 84 104 
-2.070767 0.945773 7.611854 94 84 104 
-2.313384 -0.435942 8.516309 118 98 110 
-2.377227 -1.941399 8.765490 124 100 114 
-2.357930 -1.577864 8.705894 115 91 113 
-2.284153 -0.039308 8.441814 116 92 114 
-2.284153 -0.039308 8.441814 116 92 114 
-2.332818 -1.290618 8.635618 114 97 116 
-2.395595 -2.602745 8.906592 130 102 117 
-2.043025 0.984495 7.590727 108 84 97 
-2.342510 -1.612155 8.718754 126 116 141 
-2.324669 -1.392698 8.663294 120 99 118 
-2.324669 -1.392698 8.663294 120 99 118 
-1.971899 1.068547 7.356134 138 88 100 
-1.973601 1.095497 7.381923 86 57 59 
-2.248392 -0.043351 8.410870 118 94 116 
-2.248392 -0.043351 8.410870 118 94 116 
-2.185660 0.593905 8.186966 112 94 107 
-2.245960 -0.248645 8.413659 119 101 123 
-2.251458 -0.229062 8.445526 104 88 114 
-1.955120 1.042486 7.343251 129 76 93 
-1.949430 1.061827 7.352021 143 94 113 
-1.811574 1.246846 6.832753 112 80 94 
-2.291733 -1.581982 8.669516 109 92 110 
-1.936139 1.044246 7.362364 133 80 98 
-2.204127 -0.047532 8.393459 103 84 110 
-2.233828 -0.953408 8.519817 113 93 110 
-2.233828 -0.953408 8.519817 113 93 110 
-2.228229 -0.902140 8.498259 114 97 114 
-1.993122 0.189433 7.600084 112 102 126 
-2.270460 -1.792384 8.661295 112 94 110 
-1.994354 0.227955 7.604744 110 93 109 
-2.209481 -0.428046 8.426110 109 89 104 
-2.260048 -1.605319 8.633288 110 95 114 
-2.284685 -2.106071 8.740056 99 88 115 
-2.295163 -2.595650 8.793363 114 87 108 
-1.386426 1.358205 5.316992 140 90 114 
-1.879387 1.037536 7.215930 143 92 111 
-1.887019 0.996614 7.275495 128 70 82 
-1.378661 1.433225 5.316813 140 91 111 
-2.211716 -1.406077 8.578849 121 97 111 
-2.250359 -2.349467 8.743065 114 95 117 
-2.201014 -1.156199 8.560568 111 86 107 
-2.234597 -2.365372 8.718297 121 98 118 
-2.121221 -0.027599 8.283249 114 86 104 
-2.208138 -1.791386 8.626241 120 96 110 
-2.200236 -1.610378 8.595358 108 93 112 
-1.947120 0.154174 7.614098 106 78 90 
-2.135950 -0.264412 8.365133 109 84 105 
-2.135950 -0.264412 8.365133 109 84 105 
-2.134352 -0.432267 8.370715 119 88 104 
-1.850100 1.032381 7.264991 126 70 83 
-1.854457 1.184988 7.282000 76 55 62 
-1.026698 0.655601 4.031745 84 45 56 
-2.104268 -0.047916 8.299388 115 92 111 
-2.104268 -0.047916 8.299388 115 92 111 
-2.195315 -2.108748 8.662817 127 99 115 
-1.880448 0.963335 7.426643 119 67 82 
-2.200005 -2.116478 8.693572 127 99 115 
-1.343675 1.311189 5.314697 103 71 95 
-1.343675 1.311189 5.314697 103 71 95 
-1.823171 0.985903 7.284060 113 62 79 
-1.908513 0.781096 7.635837 98 58 72 
-1.908513 0.781096 7.635837 98 58 72 
-2.071425 -0.059419 8.300439 109 83 100 
-2.077647 -0.270183 8.325656 116 89 107 
-1.844755 0.924192 7.401890 95 50 58 
-1.852654 0.887981 7.466413 107 76 100 
-2.116253 -1.614476 8.544740 115 91 105 
-2.094739 -1.343915 8.469291 128 101 116 
-1.906201 0.458524 7.727605 117 67 76 
-1.787500 1.010223 7.246329 110 63 78 
-2.089248 -1.172183 8.471981 115 85 103 
-1.869324 0.759408 7.589151 104 57 66 
-2.110080 -1.961905 8.571804 105 96 117 
-2.030344 -0.065925 8.243415 112 85 104 
-2.061898 -0.830176 8.384987 100 74 83 
-1.881414 0.327236 7.649715 131 77 90 
-1.881414 0.327236 7.649715 131 77 90 
-1.761631 1.141209 7.215779 126 82 97 
-1.851979 0.808288 7.585699 110 64 77 
-2.117461 -2.586012 8.679825 103 84 111 
-1.704267 1.289162 6.991615 135 86 105 
-2.085977 -2.102590 8.574822 98 74 96 
-1.765062 0.983531 7.262053 109 58 69 
-1.765062 0.983531 7.262053 109 58 69 
-2.071213 -1.625823 8.525295 118 91 106 
-2.071213 -1.625823 8.525295 118 91 106 
-2.093013 -2.596570 8.630750 115 91 111 
-1.735526 1.084772 7.183309 77 55 62 
-1.735526 1.084772 7.183309 77 55 62 
-1.735526 1.084772 7.183309 77 55 62 
-2.087336 -2.594206 8.671034 102 76 97 
-1.738501 1.005483 7.217503 99 61 79 
-1.995656 -0.688095 8.311214 108 87 104 
-1.966217 -0.074036 8.212735 114 89 104 
-1.974277 -0.468593 8.272125 118 91 109 
-1.667159 1.257333 6.995228 131 84 102 
-1.780166 0.971781 7.491644 104 53 60 
-2.010665 -1.755500 8.465540 106 91 113 
-1.698869 1.111048 7.171553 129 90 108 
-2.004945 -2.108745 8.520098 113 93 115 
-2.006662 -2.001630 8.541198 116 93 114 
-1.689134 0.981350 7.185252 133 79 94 
-1.944971 -0.837747 8.275133 101 83 98 
-1.942031 -0.657676 8.275369 115 89 105 
-2.000938 -2.290095 8.529567 127 103 127 
-1.926541 -0.276285 8.221448 113 85 100 
-1.926541 -0.276285 8.221448 113 85 100 
-1.933211 -0.675775 8.250861 125 98 115 
-1.215294 1.346710 5.202543 120 84 106 
-1.186114 1.570276 5.085736 120 85 109 
-1.919461 -0.473161 8.229576 114 86 103 
-1.919461 -0.473161 8.229576 114 86 103 
-1.910987 -0.929740 8.297058 107 86 101 
-1.910987 -0.929740 8.297058 107 86 101 
-1.953205 -2.247840 8.524069 114 101 121 
-1.918164 -1.617579 8.382398 125 100 115 
-1.170679 1.529841 5.123032 142 97 120 
-1.871840 -0.678744 8.217797 119 90 105 
-1.871840 -0.678744 8.217797 119 90 105 
-1.921019 -1.992551 8.463951 96 85 109 
-1.874984 -0.851989 8.284638 104 92 114 
-1.919058 -2.298519 8.482124 106 89 105 
-1.845647 -0.543361 8.166971 79 60 70 
-1.601054 1.032786 7.083892 139 88 104 
-1.601054 1.032786 7.083892 139 88 104 
-1.873019 -1.174879 8.303304 122 90 106 
-1.922087 -2.451681 8.522726 124 99 120 
-1.922087 -2.451681 8.522726 124 99 120 
-1.885013 -1.623908 8.383520 125 98 113 
-1.872389 -1.817192 8.368544 111 80 96 
-1.872389 -1.817192 8.368544 111 80 96 
-1.849272 -1.188992 8.290808 126 95 111 
-1.125779 1.536395 5.055216 159 113 138 
-0.705442 0.460036 3.172135 129 72 90 
-1.111480 1.561739 5.023419 149 117 141 
-1.136380 1.093554 5.152154 119 67 78 
-1.136380 1.093554 5.152154 119 67 78 
-1.528666 1.246178 6.930298 105 74 92 
-1.821264 -0.948568 8.258706 129 99 115 
-1.692047 0.601594 7.670749 65 30 34 
-1.136760 1.094726 5.161930 119 67 78 
-1.864826 -2.464493 8.488822 101 70 87 
-1.559086 1.010855 7.091483 132 76 88 
-1.131849 1.271592 5.157267 133 85 107 
-1.772813 -0.292459 8.090930 104 87 104 
-1.833930 -2.252134 8.416907 104 89 107 
-1.820235 -1.991583 8.366609 104 76 91 
-1.098278 1.513127 5.089328 143 95 117 
-1.089347 1.524088 5.072722 144 102 122 
-1.089347 1.524088 5.072722 144 102 122 
-1.751092 -1.191029 8.196443 109 88 105 
-1.583623 -0.767873 7.463130 123 97 112 
-1.477416 1.147515 6.996555 127 83 105 
-1.580565 0.618825 7.510847 119 64 70 
-1.568324 -0.820669 7.493025 106 82 88 
-1.584156 0.507364 7.593374 93 54 67 
-1.584156 0.507364 7.593374 93 54 67 
-1.732955 -2.196294 8.325791 122 93 110 
-1.706812 -1.651582 8.243149 103 87 106 
-1.718377 -2.165804 8.313833 110 90 106 
-1.693075 -1.210202 8.189093 121 95 113 
-1.557523 0.653297 7.557448 117 63 74 
-1.536459 -0.828566 7.470342 110 87 100 
-1.538406 -0.831198 7.492947 110 87 100 
-1.524391 -1.287952 7.425650 124 98 122 
-1.038864 1.524108 5.069039 144 98 120 
-1.679156 -1.616192 8.209314 91 71 91 
-1.419426 1.086717 6.948554 137 92 112 
-1.025032 1.565118 5.027806 158 117 143 
-1.687023 -2.469714 8.339362 122 98 122 
-1.027503 1.518947 5.094623 142 98 121 
-1.532751 0.417607 7.597784 117 66 76 
-1.516807 0.499392 7.545781 85 44 53 
-1.516807 0.499392 7.545781 85 44 53 
-1.513155 -0.189002 7.542335 90 55 69 
-1.492090 -0.264283 7.450378 92 68 84 
-1.466422 -1.227616 7.365421 106 81 100 
-1.471267 -1.000565 7.399377 93 60 65 
-1.431354 -1.351940 7.215530 107 88 110 
-1.430221 -1.295753 7.222960 116 88 110 
-1.605732 -1.971572 8.229956 131 107 121 
-1.605732 -1.971572 8.229956 131 107 121 
-1.578097 -1.206323 8.086790 109 82 97 
-1.320124 1.227857 6.775239 108 76 97 
-1.320124 1.227857 6.775239 108 76 97 
-1.594276 -2.027315 8.201600 83 58 76 
-0.992500 1.081253 5.113200 116 65 77 
-1.330834 1.077630 6.906997 134 92 111 
-0.980560 1.406624 5.099616 115 81 106 
-1.547973 -1.224861 8.051780 126 99 116 
-1.426537 -0.589777 7.489689 116 83 94 
-1.339750 0.921659 7.045866 112 61 70 
-1.339750 0.921659 7.045866 112 61 70 
-1.563965 -2.472206 8.230269 121 104 124 
-1.435720 0.229384 7.551033 64 29 34 
-1.537307 -1.689547 8.120231 107 78 100 
-1.388090 0.412686 7.370592 99 51 63 
-1.276059 0.982374 6.854869 139 81 93 
-1.380693 -0.002538 7.446392 96 57 70 
-1.494576 -2.216654 8.066860 93 79 96 
-1.489261 -2.239738 8.102988 107 88 105 
-1.373385 0.334363 7.464945 89 52 59 
-1.341600 -1.229756 7.293640 105 86 104 
-1.375579 -0.051112 7.492123 91 49 64 
-1.358949 -0.996750 7.403863 41 21 23 
-1.376136 0.114188 7.509736 116 65 74 
-1.493970 -2.169012 8.158150 117 101 123 
-1.349459 0.011964 7.422682 63 32 36 
-1.348745 0.525729 7.433211 116 67 75 
-1.211488 1.188002 6.690639 115 63 76 
-1.353263 -1.050315 7.488450 104 71 79 
-1.322555 0.329555 7.407544 97 61 75 
-1.442113 -2.183622 8.116633 101 82 101 
-1.314556 -0.386628 7.501020 123 72 86 
-1.421097 -2.307249 8.147843 121 97 121 
-1.192220 0.978596 6.830018 142 88 102 
-1.297886 0.217661 7.435487 50 21 26 
-1.241832 -1.265429 7.146720 116 62 71 
-0.887991 1.362747 5.130930 137 89 107 
-0.887991 1.362747 5.130930 137 89 107 
-1.388659 -2.058341 8.061855 129 100 122 
-1.388659 -2.058341 8.061855 129 100 122 
-1.269869 0.397326 7.382088 112 62 74 
-1.233208 -0.996341 7.201797 41 19 21 
-1.380054 -2.301591 8.097876 113 88 110 
-1.379973 -2.479542 8.131566 134 106 123 
-1.379973 -2.479542 8.131566 134 106 123 
-1.216872 -0.862141 7.181486 79 49 62 
-1.364591 -2.322788 8.074071 113 94 114 
-1.190965 -1.448693 7.061148 112 94 118 
-1.350767 -2.301212 8.062050 121 101 120 
-1.350767 -2.301212 8.062050 121 101 120 
-1.353624 -2.480536 8.097816 136 103 120 
-1.185786 -0.753849 7.151497 100 54 64 
-1.185786 -0.753849 7.151497 100 54 64 
-1.213118 -0.278603 7.331667 112 61 70 
-1.188374 -1.068943 7.183467 105 58 68 
-1.167395 -0.828623 7.070773 112 61 70 
-1.320919 -2.291824 8.057363 93 79 100 
-1.103606 1.113396 6.727021 84 45 56 
-1.103606 1.113396 6.727021 84 45 56 
-0.836853 1.414654 5.136447 133 85 101 
-0.835923 1.332618 5.142000 133 86 106 
-0.835923 1.332618 5.142000 133 86 106 
-1.295495 -2.190342 8.009291 125 100 121 
-1.151901 0.420211 7.116009 109 62 68 
-0.833602 1.292516 5.150265 130 81 100 
-0.833602 1.292516 5.150265 130 81 100 
-1.145358 -0.818732 7.109900 112 67 84 
-1.290350 -2.266411 8.031209 129 104 125 
-1.148321 0.234088 7.141987 96 53 60 
-1.080424 1.079491 6.719691 111 117 157 
-1.130471 -0.775669 7.080337 64 31 37 
-1.128683 0.004223 7.132530 51 24 30 
-1.111666 -1.272445 7.027728 118 66 73 
-1.119897 -0.886689 7.079544 97 52 58 
-1.126457 0.231473 7.134671 105 59 69 
-1.122206 -0.761854 7.110189 105 58 68 
-0.810275 1.360942 5.145058 111 80 104 
-0.808993 1.272117 5.160249 111 74 95 
-1.130343 -1.746140 7.247424 107 92 122 
-1.102113 0.598105 7.061371 124 68 79 
-1.097809 0.703111 7.033748 101 69 68 
-1.240990 -2.052906 7.956400 131 107 129 
-1.240990 -2.052906 7.956400 131 107 129 
-1.102535 0.332390 7.097079 117 66 79 
-1.095099 -0.732472 7.067792 73 37 46 
-1.101276 0.413669 7.105530 117 66 75 
-1.085149 -0.877730 7.020024 78 52 65 
-1.115050 -1.779292 7.233632 117 93 108 
-1.114285 -1.703861 7.248413 68 58 78 
-1.073902 -0.853339 7.029726 112 65 73 
-1.214737 -2.322731 7.973843 118 93 120 
-1.068610 -0.894724 7.027855 78 49 63 
-1.073841 -0.704782 7.062099 109 62 74 
-1.079257 -1.425049 7.101367 109 84 105 
-1.075531 -0.802271 7.073938 97 62 73 
-1.063370 -0.916928 7.010831 74 38 40 
-1.193914 -2.077772 7.913298 116 91 113 
-1.193914 -2.077772 7.913298 116 91 113 
-1.087965 -1.801813 7.227269 115 88 103 
-1.183629 -2.060451 7.920144 122 100 121 
-1.045108 0.705642 7.005076 121 102 84 
-0.770675 1.273563 5.166702 133 87 103 
-1.048961 0.331758 7.048090 91 46 52 
-1.048068 -0.000312 7.059755 50 24 23 
-1.048068 -0.000312 7.059755 50 24 23 
-1.041719 0.593625 7.016568 140 126 123 
-1.041719 0.593625 7.016568 140 126 123 
-0.761110 1.445259 5.140497 137 93 116 
-0.761110 1.445259 5.140497 137 93 116 
-1.029957 -0.203088 6.955287 119 73 86 
-1.049976 -0.541968 7.090218 63 40 50 
-0.765770 1.185626 5.184299 104 55 60 
-0.765770 1.185626 5.184299 104 55 60 
-1.041246 -0.622300 7.048971 46 20 20 
-0.962616 1.190774 6.515557 101 69 91 
-0.747663 1.573320 5.075041 150 111 137 
-1.038375 -0.027513 7.063667 76 39 47 
-0.716813 0.908000 4.876848 108 74 98 
-1.039602 -0.596128 7.072572 60 29 30 
-1.040464 0.122593 7.094954 81 45 49 
-1.050146 -1.788064 7.163258 119 95 112 
-1.051941 -1.763858 7.214504 112 94 120 
-1.052146 -1.765852 7.217256 112 94 120 
-1.020080 0.596392 6.990078 141 132 131 
-1.026526 0.222031 7.052179 104 65 68 
-1.019407 -0.007625 7.056246 65 32 33 
-1.019407 -0.007625 7.056246 65 32 33 
-0.746515 1.296089 5.168132 111 83 108 
-0.744656 1.416370 5.155067 112 83 113 
-0.957221 1.047493 6.642161 134 92 112 
-0.745062 1.340220 5.170803 110 80 112 
-0.999221 -0.225997 6.951775 113 64 76 
-1.020563 -0.696642 7.136966 117 73 86 
-1.004434 -1.411269 7.026796 127 69 84 
-1.004434 -1.411269 7.026796 127 69 84 
-0.990430 -1.283594 6.928782 56 28 30 
-1.004849 0.214550 7.043263 127 105 85 
-0.994617 0.406370 7.007155 92 64 49 
-1.004888 -0.308276 7.098504 89 65 79 
-0.996027 0.041908 7.053243 57 29 30 
-0.996027 0.041908 7.053243 57 29 30 
-0.992376 -1.440449 7.031338 118 70 76 
-0.992376 -1.440449 7.031338 118 70 76 
-1.113562 -2.327000 7.892216 116 90 109 
-0.721189 1.531134 5.121250 143 101 125 
-0.721189 1.531134 5.121250 143 101 125 
-1.101270 -2.227975 7.886202 77 65 83 
-1.101270 -2.227975 7.886202 77 65 83 
-1.095123 -2.244280 7.862237 88 73 86 
-0.990570 -1.723475 7.111357 100 75 97 
-0.978364 -0.277738 7.054716 125 73 84 
-0.961841 -0.203530 6.936295 60 32 33 
-0.969964 -0.865015 7.050820 120 68 80 
-0.969964 -0.865015 7.050820 120 68 80 
-0.904708 0.948816 6.592788 139 88 101 
-1.072542 -2.125664 7.862595 98 81 96 
-1.068974 -2.209235 7.858082 111 92 112 
-0.942932 -0.230556 6.945496 70 32 37 
-1.065888 -2.251250 7.856695 120 102 120 
-0.907849 0.412963 6.721835 102 73 49 
-0.891024 0.924122 6.597340 124 68 77 
-0.955397 -0.716865 7.114412 110 62 74 
-0.682294 1.573873 5.080640 148 104 124 
-0.887984 0.429598 6.646180 84 57 29 
-0.879747 0.903891 6.584325 118 69 81 
-0.687560 1.367118 5.175618 128 80 96 
-0.879375 0.461595 6.635729 101 85 60 
-0.850459 1.143437 6.453229 131 84 102 
-0.905126 -1.664052 6.872192 90 66 79 
-0.696668 0.991415 5.315754 108 74 98 
-0.842256 1.161111 6.425582 132 84 106 
-0.903449 -1.584262 6.953640 82 71 88 
-0.916310 -0.304387 7.070066 123 72 81 
-0.910660 -0.155970 7.025946 53 24 25 
-0.859474 0.485786 6.630591 159 141 109 
-0.887207 -1.598501 6.886802 107 82 102 
-0.906483 -0.338349 7.033668 119 67 77 
-0.842323 0.911505 6.553039 139 88 102 
-0.666005 1.348595 5.182840 132 84 100 
-0.662205 1.417277 5.168287 133 85 107 
-0.995167 -2.091611 7.771186 126 100 127 
-0.898615 -0.420633 7.012368 58 30 31 
-0.859331 0.571504 6.723322 107 94 90 
-0.901184 -1.835386 7.077765 114 92 115 
-0.874103 -1.297662 6.861308 77 39 44 
-0.841761 0.527561 6.642482 188 172 146 
-0.887063 -0.374462 7.041378 110 63 73 
-0.849750 0.552101 6.744126 188 180 155 
-0.886955 -0.375576 7.060788 110 63 73 
-0.886955 -0.375576 7.060788 110 63 73 
-0.839608 0.364333 6.682942 149 133 120 
-0.835795 0.391886 6.652571 113 86 65 
-0.860927 -1.434043 6.895020 120 69 78 
-0.852942 -1.614594 6.833785 119 97 116 
-0.877317 -0.406671 7.024651 68 41 47 
-0.645982 1.395158 5.172479 121 78 98 
-0.816000 0.945118 6.551972 145 89 105 
-0.861733 -1.096107 6.942421 93 60 71 
-0.835857 0.335731 6.770328 172 166 143 
-0.862658 -0.688525 7.030585 45 28 30 
-0.813455 0.403401 6.647306 74 47 34 
-0.853301 -0.441694 7.015591 61 27 28 
-0.941469 -2.228741 7.770377 129 105 122 
-0.943021 -2.352246 7.806585 130 106 125 
-0.844432 -0.174353 6.983966 57 27 29 
-0.769763 1.168961 6.365087 102 72 96 
-0.823010 0.051336 6.826831 31 17 17 
-0.843587 -0.485843 6.998544 90 52 60 
-0.932990 -2.274306 7.768695 126 101 127 
-0.792149 0.448876 6.610181 48 28 25 
-0.814752 0.107236 6.799042 64 41 49 
-0.925427 -2.249540 7.753353 134 110 132 
-0.788128 0.466526 6.596571 56 34 23 
-0.824740 -0.063709 6.945569 106 57 63 
-0.827386 -0.462042 6.990463 104 58 66 
-0.805725 0.139568 6.806068 84 44 53 
-0.797278 0.359038 6.755036 131 109 90 
-0.781854 0.395347 6.644869 47 24 16 
-0.812773 -1.121336 6.911015 111 63 79 
-0.812773 -1.121336 6.911015 111 63 79 
-0.812169 -1.458267 6.909735 120 77 89 
-0.812082 -1.456563 6.907631 120 77 89 
-0.597179 1.575340 5.093227 130 83 104 
-0.812604 -1.097910 6.929795 53 32 41 
-0.796313 0.127734 6.810045 76 39 46 
-0.768549 0.516149 6.592657 58 39 35 
-0.806914 -0.202273 6.943703 54 24 25 
-0.777836 0.621057 6.714153 159 150 145 
-0.805676 -0.071090 6.954914 107 60 70 
-0.762113 0.443013 6.640688 21 10 12 
-0.762113 0.443013 6.640688 21 10 12 
-0.880018 -2.105583 7.700479 119 94 117 
-0.759609 0.412657 6.639872 23 9 8 
-0.880977 -2.245563 7.706860 126 99 121 
-0.796817 -0.483516 6.966649 102 58 68 
-0.772197 0.168761 6.771662 83 46 51 
-0.733111 1.086548 6.469643 131 88 107 
-0.733111 1.086548 6.469643 131 88 107 
-0.783952 -0.202691 6.919332 50 22 23 
-0.745766 0.506691 6.602479 31 15 15 
-0.747314 0.472849 6.616180 27 15 15 
-0.758805 0.185210 6.761565 79 41 52 
-0.772855 -0.213706 6.887715 45 16 18 
-0.864542 -2.330015 7.710156 112 85 101 
-0.864542 -2.330015 7.710156 112 85 101 
-0.768547 0.036120 6.870571 65 36 40 
-0.741301 0.410964 6.648318 26 14 13 
-0.741301 0.410964 6.648318 26 14 13 
-0.775367 -0.523982 6.954781 78 40 53 
-0.765402 -1.486966 6.891293 113 61 73 
-0.767334 -0.755654 6.907116 100 58 70 
-0.767334 -0.755654 6.907116 100 58 70 
-0.698407 1.158503 6.303500 107 73 97 
-0.768460 -0.494036 6.960789 111 58 64 
-0.728376 0.546918 6.596667 41 21 22 
-0.756620 0.083414 6.897924 52 26 29 
-0.745433 -1.556912 6.821500 122 95 118 
-0.738261 0.170870 6.753073 82 45 52 
-0.718389 0.503188 6.614766 53 23 26 
-0.717722 0.488082 6.630745 52 19 24 
-0.748009 -0.680367 6.960369 127 77 89 
-0.724411 0.190106 6.760733 80 43 50 
-0.736205 -0.183018 6.871885 64 28 28 
-0.711546 0.426108 6.662963 76 36 44 
-0.716344 0.285208 6.823763 64 33 39 
-0.674925 0.910595 6.451388 109 51 57 
-0.714110 0.300870 6.826121 60 31 35 
-0.694617 0.401822 6.685977 120 70 79 
-0.706553 0.147091 6.801157 84 45 50 
-0.706553 0.147091 6.801157 84 45 50 
-0.699286 0.188920 6.754478 113 63 72 
-0.687207 0.485834 6.661040 114 62 75 
-0.704822 0.325184 6.831908 83 46 53 
-0.710405 0.116099 6.886200 63 31 34 
-0.680333 0.539728 6.617643 95 49 59 
-0.704220 -0.500281 6.899374 140 86 100 
-0.698375 0.258045 6.866057 109 62 70 
-0.701703 -0.530652 6.900800 72 35 42 
-0.695071 0.283317 6.833452 122 71 80 
-0.772894 -2.251326 7.632676 119 95 109 
-0.692134 0.296170 6.853352 126 75 84 
-0.673259 0.472256 6.666338 104 63 81 
-0.673259 0.472256 6.666338 104 63 81 
-0.688820 -1.466354 6.827783 121 69 82 
-0.671033 0.486474 6.668223 109 66 83 
-0.686907 -1.135681 6.829399 114 64 73 
-0.686907 -1.135681 6.829399 114 64 73 
-0.677211 0.138495 6.778649 108 65 78 
-0.658329 0.580230 6.613377 128 76 88 
-0.685117 -0.097559 6.883265 118 67 77 
-0.664263 -0.883190 6.701183 101 71 93 
-0.664263 -0.883190 6.701183 101 71 93 
-0.657177 0.513828 6.625979 126 75 84 
-0.658121 0.151027 6.683765 62 30 31 
-0.664759 0.172423 6.752025 101 56 63 
-0.669669 0.278406 6.826988 96 58 76 
-0.669742 0.290434 6.827670 100 62 80 
-0.672256 -0.495247 6.880154 144 88 103 
-0.680329 -1.853323 6.967822 96 93 98 
-0.666550 -0.239719 6.846979 76 37 39 
-0.660356 -1.449307 6.787574 118 60 72 
-0.660356 -1.449307 6.787574 118 60 72 
-0.624153 0.907554 6.409988 98 48 54 
-0.659588 0.299830 6.850813 102 71 94 
-0.635570 0.493513 6.601067 100 58 76 
-0.649876 0.167120 6.775167 85 46 51 
-0.666836 -1.829861 6.961048 58 94 115 
-0.657111 0.286632 6.850790 100 70 93 
-0.632681 0.526398 6.620854 98 52 60 
-0.650308 0.099690 6.805634 90 60 75 
-0.714257 -2.229050 7.509828 130 99 114 
-0.635991 -1.321881 6.685115 103 46 54 
-0.657708 -1.858839 6.942956 69 76 96 
-0.622827 0.537062 6.592804 78 50 64 
-0.638694 0.133600 6.761072 108 62 73 
-0.645846 0.264500 6.836792 90 61 76 
-0.706837 -2.274019 7.490199 125 100 124 
-0.639627 -1.123733 6.799883 70 34 39 
-0.645353 0.048505 6.858626 76 45 53 
-0.636435 0.150275 6.762958 109 69 78 
-0.621665 0.480106 6.605812 86 52 65 
-0.643694 -0.474402 6.842086 137 84 96 
-0.636847 0.090054 6.793698 72 49 58 
-0.695239 -2.281253 7.454757 124 106 128 
-0.480593 1.535469 5.168616 138 92 112 
-0.480593 1.535469 5.168616 138 92 112 
-0.694978 -2.211612 7.477611 125 92 106 
-0.692819 -2.265693 7.458771 123 104 124 
-0.607320 0.491063 6.580105 75 51 65 
-0.631618 -0.504615 6.845445 149 96 111 
-0.621392 0.136497 6.786163 99 70 89 
-0.621392 0.136497 6.786163 99 70 89 
-0.621171 0.099546 6.783760 88 66 79 
-0.583484 1.014757 6.371865 142 88 111 
-0.626689 0.249265 6.843959 115 69 83 
-0.578595 0.933633 6.368894 136 80 93 
-0.596009 0.522893 6.586857 108 67 85 
-0.674586 -2.292647 7.465122 102 84 109 
-0.594699 0.542579 6.572389 88 61 76 
-0.616873 -0.455795 6.817463 111 64 75 
-0.614827 0.116822 6.822285 91 67 83 
-0.665240 -2.261297 7.451757 110 89 118 
-0.660974 -2.237358 7.433089 130 105 137 
-0.464795 1.128987 5.263669 116 63 71 
-0.662121 -2.107966 7.504892 76 47 65 
-0.592648 -1.125991 6.770092 48 28 30 
-0.652071 -2.305611 7.455768 117 95 116 
-0.573983 0.538790 6.580634 121 70 79 
-0.582573 -1.476815 6.683064 135 87 103 
-0.570622 0.516918 6.596896 125 73 85 
-0.637398 -2.155258 7.408767 64 60 86 
-0.569597 -0.956725 6.673438 63 42 54 
-0.589034 -1.696182 6.932481 29 18 22 
-0.575999 -0.452511 6.803514 109 62 73 
-0.574867 -0.406597 6.792206 61 29 34 
-0.586818 -1.760215 6.964709 46 18 32 
-0.555560 0.539474 6.588160 116 66 77 
-0.563241 0.400540 6.708454 93 64 82 
-0.620006 -2.194075 7.391521 108 85 118 
-0.530166 0.922440 6.341899 149 95 111 
-0.564147 -0.367649 6.779321 33 17 15 
-0.540876 0.745952 6.526590 102 63 80 
-0.537480 0.777791 6.514050 111 67 86 
-0.549636 -1.470656 6.664993 141 92 111 
-0.549636 -1.470656 6.664993 141 92 111 
-0.435919 1.205873 5.306499 54 28 29 
-0.542953 0.539038 6.609307 78 37 46 
-0.605805 -2.275645 7.416499 130 106 130 
-0.542768 -0.865549 6.637425 96 50 62 
-0.600682 -2.156221 7.388733 105 82 90 
-0.599532 -2.191416 7.406930 132 106 124 
-0.536833 -0.921603 6.655473 65 31 35 
-0.508899 0.935259 6.306296 134 71 85 
-0.587168 -2.265926 7.384985 128 103 125 
-0.578034 -2.235250 7.368881 137 113 137 
-0.523543 -0.778182 6.671014 55 26 31 
-0.418910 1.276832 5.336112 96 55 61 
-0.519011 -0.938807 6.614051 56 28 33 
-0.518804 0.609960 6.606811 126 75 84 
-0.529591 -0.315923 6.744842 103 53 62 
-0.516058 -1.335490 6.606559 122 60 78 
-0.531551 -1.888863 6.839570 159 144 129 
-0.572732 -2.269679 7.371821 123 98 120 
-0.485594 0.935647 6.299827 134 73 85 
-0.485582 0.936848 6.300190 134 73 85 
-0.523043 -1.673027 6.857274 73 56 70 
-0.521930 -1.677532 6.875004 73 56 70 
-0.557118 -2.215857 7.338722 129 105 127 
-0.502540 0.328383 6.645192 113 62 71 
-0.489039 -0.886808 6.596824 99 54 59 
-0.503969 -1.643524 6.867590 117 89 111 
-0.503969 -1.643524 6.867590 117 89 111 
-0.462286 0.933938 6.293706 129 72 90 
-0.536477 -2.242262 7.348420 121 103 123 
-0.536477 -2.242262 7.348420 121 103 123 
-0.485087 0.354982 6.636683 112 60 70 
-0.485087 0.354982 6.636683 112 60 70 
-0.488195 -0.011377 6.679524 48 20 19 
-0.484893 0.316717 6.666650 114 61 71 
-0.529299 -2.138739 7.361565 157 135 129 
-0.474975 -0.924089 6.599212 70 45 58 
-0.471057 -0.499761 6.577222 92 48 58 
-0.518399 -2.211435 7.322529 119 89 107 
-0.463297 -0.937789 6.605300 71 43 55 
-0.460122 -0.880386 6.591480 103 59 63 
-0.457510 0.173892 6.620994 104 53 58 
-0.449771 -0.927354 6.543134 74 50 64 
-0.446099 -0.732080 6.526275 83 41 51 
-0.466598 -1.661404 6.832313 128 104 125 
-0.466598 -1.661404 6.832313 128 104 125 
-0.449692 -1.163181 6.581885 77 52 60 
-0.447603 -0.834762 6.585556 59 28 33 
-0.493717 -2.263301 7.311888 122 101 125 
-0.440466 -0.819972 6.622005 100 55 62 
-0.440466 -0.819972 6.622005 100 55 62 
-0.436645 0.435496 6.595471 104 52 59 
-0.437738 -1.137946 6.652496 66 41 47 
-0.433655 0.536937 6.586285 108 54 62 
-0.479689 -2.243922 7.298422 112 100 125 
-0.477237 -2.221275 7.299190 112 100 125 
-0.414590 -0.789149 6.552167 79 43 55 
-0.430850 -1.634927 6.815296 104 84 106 
-0.430850 -1.634927 6.815296 104 84 106 
-0.410759 -0.939440 6.530388 95 54 63 
-0.406665 -1.066689 6.540347 54 25 27 
-0.406665 -1.066689 6.540347 54 25 27 
-0.405952 0.505211 6.562861 123 66 75 
-0.408587 0.150533 6.606236 108 55 64 
-0.406011 0.523785 6.563813 122 65 72 
-0.407557 0.132845 6.589392 104 54 58 
-0.446456 -2.246910 7.274306 100 80 97 
-0.401696 -0.770197 6.574599 113 61 73 
-0.401696 -0.770197 6.574599 113 61 73 
-0.396977 -0.922061 6.536024 96 60 71 
-0.396845 -0.954035 6.535668 81 48 59 
-0.396845 -0.954035 6.535668 81 48 59 
-0.393079 -0.706294 6.548968 42 19 21 
-0.322748 1.402476 5.443441 69 36 47 
-0.385343 -0.938786 6.540341 91 52 63 
-0.361378 1.057742 6.205945 122 73 92 
-0.383554 -0.063791 6.586728 80 43 50 
-0.381290 -0.603745 6.590782 76 43 51 
-0.381290 -0.603745 6.590782 76 43 51 
-0.374841 0.638742 6.518225 105 63 77 
-0.357313 0.903586 6.213616 150 98 115 
-0.376672 -0.019875 6.592312 94 58 68 
-0.373070 0.529354 6.528493 126 73 87 
-0.369873 0.431102 6.555833 75 45 57 
-0.372150 -0.813854 6.599800 110 62 76 
-0.368596 -0.079790 6.575816 83 53 65 
-0.368596 -0.079790 6.575816 83 53 65 
-0.363887 -0.662442 6.577943 131 77 90 
-0.341770 0.885767 6.217784 124 63 74 
-0.353679 0.535721 6.519947 127 73 86 
1.799297 -5.510537 -33.643244 129 84 104 
-0.353948 -0.919219 6.616926 118 64 77 
-0.292049 1.459806 5.497262 76 54 62 
-0.348253 -0.363462 6.552601 74 50 61 
-0.348212 -0.760205 6.643036 92 46 52 
-0.287456 1.381880 5.484171 100 54 61 
-0.338316 -1.387214 6.505010 84 61 85 
-0.338316 -1.387214 6.505010 84 61 85 
-0.333516 0.524733 6.495378 120 65 76 
-0.335650 0.154136 6.536930 119 63 76 
-0.328262 -0.288943 6.486410 88 63 78 
-0.278425 1.494188 5.501595 107 59 66 
-0.368584 -2.151246 7.293953 118 95 121 
-0.331386 -0.858283 6.645027 65 29 32 
-0.327356 -0.881952 6.614310 111 61 68 
-0.272336 1.409570 5.500294 99 56 63 
-0.326732 -1.095745 6.652670 51 24 29 
-0.327581 -1.644599 6.672055 134 114 132 
-0.316234 -0.912637 6.633849 111 64 74 
-0.343621 -2.147173 7.325542 127 101 124 
-0.295487 0.857459 6.287481 134 76 89 
-0.293064 0.727618 6.383398 103 71 93 
-0.247785 1.682651 5.401491 94 66 71 
-0.289553 0.758182 6.356569 75 48 58 
-0.247030 1.326072 5.558179 92 56 60 
-0.247030 1.326072 5.558179 92 56 60 
-0.272149 1.007712 6.121283 136 88 107 
-0.272149 1.007712 6.121283 136 88 107 
-0.320210 -2.140566 7.277427 123 101 120 
-0.239375 1.233306 5.567755 46 26 25 
-0.262097 0.880696 6.145477 121 63 77 
-0.247004 1.041725 6.103450 102 71 87 
-0.247004 1.041725 6.103450 102 71 87 
-0.288434 -2.123683 7.270587 126 106 131 
-0.257024 -1.381194 6.474470 110 80 92 
-0.239055 0.893271 6.125791 151 93 107 
-0.229467 1.003659 6.106500 131 86 106 
-0.238370 -1.593084 6.676356 114 91 111 
-0.353150 1.520749 10.290639 136 80 93 
-0.219994 -0.203472 6.620328 103 61 74 
-0.219994 -0.203472 6.620328 103 61 74 
-0.220190 -0.935302 6.634728 74 32 38 
-0.200183 0.838702 6.372652 132 71 79 
-0.193532 -2.159760 7.173793 127 105 126 
-0.131951 1.257164 5.720348 95 44 46 
-0.139573 0.905534 6.048002 139 86 102 
-0.153094 -0.324267 6.637669 122 68 82 
-0.162147 -2.201232 7.164761 130 106 128 
-0.148439 -1.019929 6.545264 49 21 20 
-0.147210 0.227977 6.586049 118 71 87 
-0.159710 -2.148210 7.167323 112 85 107 
-0.144349 0.399702 6.563516 127 75 87 
-0.123729 1.332252 5.725304 59 33 34 
-0.143607 -0.271965 6.642851 122 65 80 
-0.131905 0.390100 6.535661 127 75 85 
-0.129118 0.584322 6.514819 102 60 72 
-0.127177 0.374025 6.536401 129 76 92 
-0.127177 0.374025 6.536401 129 76 92 
-0.198239 1.529564 10.190050 134 73 85 
-0.117294 0.905927 6.027742 146 91 105 
-0.136166 -2.176096 7.155314 126 104 125 
-0.132854 -1.924300 7.113824 123 93 120 
-0.132854 -1.924300 7.113824 123 93 120 
-0.132854 -1.924300 7.113824 123 93 120 
-0.106842 1.603704 5.703466 118 72 85 
-0.123164 0.201141 6.576200 96 68 90 
-0.132467 -1.845226 7.101971 120 90 114 
-0.112951 0.929731 6.029856 136 81 89 
-0.127316 -1.883769 7.101814 119 90 113 
-0.119827 -0.380594 6.661545 121 67 77 
-0.114270 -1.169510 6.627960 131 107 130 
-0.119518 -1.809456 7.088393 111 98 123 
-0.092963 1.466490 5.749121 112 62 72 
-0.095432 -0.891068 6.492708 97 69 82 
-0.070850 1.645010 5.645793 134 89 107 
-0.072811 1.265977 5.792727 122 65 77 
-0.070554 1.363634 5.785302 95 54 63 
-0.077907 -0.324695 6.581581 119 65 71 
-0.061476 1.606056 5.726098 114 64 75 
-0.048864 0.122913 6.516617 122 70 82 
-0.046111 0.591796 6.462246 96 64 85 
-0.047082 -1.822878 7.024111 119 101 123 
-0.047082 -1.822878 7.024111 119 101 123 
-0.047308 -2.043605 7.067615 110 87 108 
-0.047308 -2.043605 7.067615 110 87 108 
-0.036263 1.645482 5.675592 108 76 100 
-0.029273 0.326071 6.368219 100 58 73 
-0.029969 0.097758 6.520977 103 60 69 
-0.019948 1.625233 5.712328 102 72 96 
-0.022316 0.315402 6.354988 73 33 42 
-0.022316 0.315402 6.354988 73 33 42 
-0.017973 0.503273 6.451101 123 70 83 
-0.017201 -0.934875 6.281962 133 103 119 
-0.011785 1.619373 5.748034 100 69 87 
-0.012998 -1.382018 6.529202 117 96 116 
-0.013085 0.272883 6.356015 94 55 59 
-0.008468 0.322816 6.344806 94 48 59 
-0.008373 -0.731433 6.450428 144 97 115 
-0.008373 -0.731433 6.450428 144 97 115 
-0.006272 -0.318562 6.510715 111 61 70 
-0.019335 5.216883 31.495941 127 83 103 
-0.003633 0.987205 5.944205 130 83 99 
-0.003877 0.338609 6.346474 91 51 59 
-0.001328 -0.924570 6.300372 118 93 110 
0.000811 1.707353 5.651696 136 92 115 
0.001396 -2.179215 7.060283 126 100 119 
0.005379 0.525583 6.428097 121 68 76 
0.004993 1.613569 5.798475 91 64 83 
0.004993 1.613569 5.798475 91 64 83 
0.006946 1.629812 5.740517 95 66 85 
0.007723 0.212525 6.431113 121 74 90 
0.009100 1.087329 5.805072 109 77 101 
0.015687 1.017739 5.912536 128 80 94 
0.015687 1.017739 5.912536 128 80 94 
0.028752 0.394967 6.443519 84 42 46 
0.028298 -0.934938 6.280749 90 58 80 
0.031253 0.068933 6.475736 139 85 101 
0.031408 -0.101612 6.499355 157 106 123 
0.031408 -0.101612 6.499355 157 106 123 
0.036916 -2.154302 7.018956 124 92 113 
0.036700 -1.836731 6.980766 117 101 120 
0.035892 0.041487 6.461370 140 91 107 
0.031969 1.624523 5.734360 120 70 81 
0.038491 1.114510 5.800202 99 64 79 
0.044741 -0.426312 6.400371 79 54 60 
0.040483 1.612386 5.770000 118 85 107 
0.054033 -1.616223 6.943217 125 102 125 
0.049665 -0.855624 6.389515 125 97 115 
0.066310 -1.601831 6.913146 115 88 112 
0.062677 -0.718384 6.311534 111 84 100 
0.060588 1.646963 5.694456 101 70 88 
0.070767 0.089298 6.441886 137 86 101 
0.071066 -0.022215 6.467396 147 96 113 
0.070767 0.089298 6.441886 137 86 101 
0.066687 1.743776 5.687076 155 106 126 
0.069032 0.845414 5.893784 119 63 69 
0.077261 0.520619 6.401027 111 60 69 
0.071073 0.961845 5.885814 116 80 96 
0.086236 -1.690652 6.913748 128 100 120 
0.089385 -1.844729 6.945108 121 103 123 
0.082020 0.807832 5.907481 140 91 112 
0.080414 1.173098 5.787304 127 91 106 
0.088569 0.233892 6.379000 133 77 90 
0.088569 0.233892 6.379000 133 77 90 
0.090373 -0.953631 6.312809 106 77 99 
0.091789 -0.054902 6.441712 150 97 115 
0.093204 0.261025 6.380820 128 73 84 
0.093144 -0.347063 6.373559 121 90 109 
0.095602 0.381882 6.385922 100 57 64 
0.092849 1.511834 5.776604 113 64 70 
0.095426 1.648019 5.678366 108 69 83 
0.106708 0.314069 6.357579 105 58 72 
0.103080 0.813697 5.887662 145 94 113 
0.111336 0.332148 6.359130 102 54 66 
0.111308 0.281541 6.357368 118 67 74 
0.106939 0.849028 5.865395 113 58 75 
0.132124 -2.022817 6.948886 117 89 117 
0.115632 1.475088 5.767594 117 69 81 
0.149269 -2.001627 6.921882 133 111 136 
0.126307 1.347789 5.777513 62 26 28 
0.153062 -1.619009 6.870385 118 93 115 
0.153260 -1.448657 6.776443 112 82 92 
0.132290 0.841050 5.858158 122 65 76 
0.157955 -1.335981 6.766206 130 108 128 
0.137987 1.013190 5.828655 114 63 71 
0.137987 1.013190 5.828655 114 63 71 
0.138210 1.475749 5.748710 120 76 91 
0.140583 1.419315 5.759256 115 71 83 
0.148758 0.852790 5.837823 138 94 109 
0.164447 0.104567 6.362961 98 41 47 
0.179430 -1.486599 6.832728 115 84 99 
0.184330 -1.611780 6.829529 127 95 118 
0.158464 1.433188 5.728036 115 68 84 
0.205905 -2.004115 6.887131 130 105 127 
0.211039 -2.031205 6.888625 127 100 124 
0.188016 0.836752 5.809230 114 61 70 
0.206926 0.343269 6.322927 36 22 20 
0.235409 -1.715142 6.805581 123 98 122 
0.235620 -1.249909 6.741797 110 90 105 
0.230367 -0.744738 6.525922 109 77 90 
0.223180 0.582963 6.264480 88 49 54 
0.223180 0.582963 6.264480 88 49 54 
0.247447 -2.039672 6.863404 74 57 86 
0.247817 -1.268049 6.743266 128 105 125 
0.219851 0.771375 5.872316 122 70 82 
0.211681 1.599289 5.651181 120 67 83 
0.211681 1.599289 5.651181 120 67 83 
0.261530 -1.847196 6.841302 110 90 112 
0.219065 1.515864 5.683552 118 70 82 
0.219065 1.515864 5.683552 118 70 82 
0.220066 1.250684 5.710601 117 66 75 
0.253937 0.493538 6.295129 132 84 98 
0.237033 0.871865 5.772085 144 92 109 
0.277285 -1.412225 6.745731 128 99 114 
0.297569 -1.275604 6.707448 108 80 102 
-0.274939 -0.940976 -6.053960 131 76 89 
0.310415 -1.416781 6.721763 124 100 115 
0.263125 1.510429 5.656454 113 68 76 
0.268453 1.247635 5.684074 113 61 68 
0.318763 -1.281580 6.695215 105 81 95 
0.322356 -1.737332 6.763678 114 89 111 
0.321936 -1.840219 6.758259 115 93 116 
0.277587 1.024462 5.702599 78 47 62 
0.326681 -1.090288 6.657341 118 94 107 
0.290677 0.785206 5.884401 123 71 83 
0.343286 -1.416550 6.697753 117 97 117 
0.348303 -1.394734 6.700062 87 62 88 
0.348303 -1.394734 6.700062 87 62 88 
0.324927 0.550593 6.213297 108 62 70 
0.322407 0.000632 6.080597 148 119 137 
0.362943 -1.312093 6.658306 129 106 124 
0.369576 -2.068820 6.778246 105 79 92 
0.306448 1.591903 5.587425 114 68 79 
0.326990 0.704855 5.924221 120 70 82 
0.369976 -1.632010 6.697095 121 95 117 
0.369405 -1.412237 6.687712 107 87 99 
0.381443 -1.391180 6.644358 130 114 132 
0.391220 -1.648287 6.686138 121 103 121 
0.401741 -1.555174 6.660049 127 102 121 
0.396930 -0.964485 6.583246 118 90 105 
0.406662 -0.926711 6.586263 118 100 122 
0.413029 -1.760301 6.686927 113 98 120 
0.413029 -1.760301 6.686927 113 98 120 
0.420596 -2.057366 6.728094 108 83 105 
0.428621 -1.627912 6.664206 120 105 127 
0.429929 -1.869634 6.686739 109 83 110 
0.436651 -1.451469 6.639921 121 94 109 
0.436452 -0.696043 6.568007 119 104 127 
0.446163 -1.507461 6.639377 116 88 103 
0.395187 0.035880 5.884088 124 101 121 
0.406810 0.517338 5.993099 82 65 73 
0.448005 -0.961631 6.562792 116 96 107 
0.402928 0.005823 5.872686 123 95 115 
0.391043 0.840294 5.669940 120 110 137 
0.458876 -1.853088 6.648204 120 89 112 
0.394631 0.990743 5.662318 97 70 92 
0.460303 -1.312900 6.601421 123 96 114 
0.386959 1.582710 5.522393 102 80 99 
0.467325 -1.879105 6.665014 120 97 115 
0.457044 -0.840578 6.522711 123 100 114 
0.476472 -2.032942 6.692700 128 97 120 
0.475438 -1.982717 6.678312 99 76 92 
0.475438 -1.982717 6.678312 99 76 92 
0.428714 0.506076 5.995752 90 64 73 
0.468411 -1.110627 6.548121 129 108 127 
0.484228 -2.054552 6.664177 139 119 139 
0.474967 -0.482484 6.476810 86 73 99 
0.414902 0.948637 5.631147 109 79 87 
0.449148 0.141573 6.066073 131 84 103 
0.496411 -2.048387 6.666308 133 112 131 
0.491122 -1.186723 6.565582 116 101 120 
0.415186 1.334392 5.552431 84 79 102 
0.419402 1.180048 5.581998 106 59 66 
0.419402 1.180048 5.581998 106 59 66 
0.493424 -1.290425 6.563840 127 101 117 
0.495242 -1.427817 6.589366 102 71 80 
0.496082 -1.169890 6.537064 112 92 112 
0.495202 -0.954066 6.526711 117 92 114 
0.489789 -0.268395 6.425974 116 91 110 
0.489789 -0.268395 6.425974 116 91 110 
0.504748 -1.635911 6.587056 111 80 95 
0.422872 1.578404 5.494791 97 75 91 
0.503689 -0.975063 6.513467 122 94 106 
0.500639 -0.689302 6.475321 122 98 120 
0.516377 -1.885262 6.643786 113 91 117 
0.510178 -1.324434 6.565597 127 96 112 
0.436674 0.926533 5.622431 121 98 115 
0.511646 -1.184752 6.554277 105 87 113 
0.514468 -1.652693 6.588810 115 87 102 
0.468979 0.526045 5.927958 107 77 87 
0.525325 -1.635577 6.575825 113 86 101 
0.475795 0.237627 5.959526 117 71 88 
0.533358 -1.908678 6.615816 115 89 114 
0.452961 0.817100 5.622410 99 75 89 
0.456208 0.831585 5.612198 106 96 123 
0.483419 0.583875 5.894584 125 105 122 
0.542482 -1.324443 6.525911 123 92 110 
0.540377 -1.142821 6.500654 124 101 119 
0.490265 -0.060314 5.872887 115 88 113 
0.541883 -0.893301 6.462933 97 67 82 
0.541883 -0.893301 6.462933 97 67 82 
0.558233 -1.188389 6.516849 126 104 127 
0.507789 0.343465 5.904864 81 65 84 
0.570120 -1.879107 6.624194 108 81 96 
0.567601 -1.664143 6.568206 120 90 107 
0.566560 -1.094154 6.476900 107 79 94 
0.573531 -1.503295 6.528079 137 117 136 
0.574979 -1.340213 6.517582 118 87 103 
0.574979 -1.340213 6.517582 118 87 103 
0.592602 -1.671695 6.556341 104 81 94 
0.488966 1.578913 5.389181 73 62 79 
0.542212 0.194956 5.930314 119 93 115 
0.605841 -1.883296 6.569762 98 67 92 
0.605547 -0.939558 6.442644 105 79 90 
0.605547 -0.939558 6.442644 105 79 90 
0.531326 0.924385 5.632336 116 94 120 
0.618796 -1.686123 6.531390 111 81 99 
0.603007 -0.483994 6.366890 121 103 125 
0.603007 -0.483994 6.366890 121 103 125 
0.624739 -1.658774 6.518814 114 89 103 
0.547910 0.951563 5.656116 111 85 99 
0.636518 -1.991843 6.542743 115 87 102 
0.631478 -1.579784 6.491743 139 117 133 
0.527536 1.740014 5.404167 111 97 114 
0.643786 -1.949981 6.544584 124 97 121 
0.558166 0.819165 5.677049 123 94 109 
0.575035 0.991411 5.680951 120 92 103 
0.575035 0.991411 5.680951 120 92 103 
0.643403 -0.296488 6.333444 104 80 96 
0.609516 0.187726 5.999684 108 79 97 
0.673225 -1.888715 6.507504 106 74 95 
0.661925 -0.671983 6.356611 124 97 119 
0.662270 -0.281112 6.294679 115 96 117 
0.666264 -0.515965 6.332284 72 58 73 
0.674242 -1.116475 6.406841 95 69 80 
0.692062 -1.999977 6.507690 106 86 98 
0.686076 -0.670832 6.345631 123 98 119 
0.708117 -1.892006 6.482619 124 91 112 
0.696617 -0.899002 6.357281 119 98 118 
0.694920 -0.494972 6.321829 123 108 128 
0.702663 -1.002139 6.370183 101 78 92 
0.721035 -1.883087 6.471229 115 89 111 
0.721077 -1.124721 6.369955 105 83 104 
0.711510 -0.298472 6.286137 112 99 121 
0.749534 -1.884528 6.474724 108 89 113 
0.743968 -0.712771 6.310054 117 95 116 
0.746411 -0.693940 6.311032 118 91 113 
0.772331 -1.888608 6.449407 124 103 123 
0.775185 -1.898960 6.434831 131 109 129 
0.772244 -0.737100 6.298519 115 90 112 
0.765419 -0.295215 6.224246 110 87 109 
0.729472 0.957640 5.897723 71 58 71 
0.729472 0.957640 5.897723 71 58 71 
0.787574 -1.342728 6.347182 124 100 122 
0.743289 0.980811 5.922660 94 82 100 
0.800046 -1.209783 6.336721 121 106 126 
0.769112 0.643646 6.093309 116 93 109 
0.814199 -1.905975 6.411534 130 116 131 
0.820779 -1.875661 6.426730 111 91 117 
0.808060 -1.164503 6.310210 86 70 86 
0.798917 -0.301519 6.239626 112 87 108 
0.798702 -0.503526 6.237487 108 92 118 
0.809694 -0.299456 6.200873 112 87 108 
0.806501 -0.106607 6.176619 118 103 129 
0.806501 -0.106607 6.176619 118 103 129 
0.817493 -0.489319 6.225775 119 96 118 
0.827445 -0.737954 6.249865 125 110 129 
0.844205 -1.713540 6.375437 102 79 105 
0.839859 -1.354015 6.325181 124 100 122 
0.849026 -1.749781 6.376290 107 86 115 
0.810304 0.729238 6.071041 123 105 125 
