ply
    format ascii 1.0
    element vertex 8706
    property float x
    property float y
    property float z
    property uchar red
    property uchar green
    property uchar blue
    end_header
-2.635918 0.425763 8.106379 93 103 140 
-2.624009 0.414707 8.122137 33 41 83 
-2.479724 1.597176 7.691133 65 63 76 
-2.479724 1.597176 7.691133 65 63 76 
-2.458409 1.622464 7.603896 87 92 124 
-2.643595 -0.382041 8.213589 98 108 149 
-2.675555 -1.199615 8.341453 41 48 78 
-2.430683 1.616238 7.610159 67 66 94 
-2.652831 -1.156468 8.300873 77 84 111 
-2.658369 -1.701629 8.382664 107 120 162 
-2.405548 1.618324 7.643295 108 120 135 
-2.644515 -1.721637 8.405965 33 45 97 
-2.635066 -1.704934 8.372489 105 114 158 
-2.666354 -2.309684 8.482825 95 101 141 
-2.664372 -2.329870 8.467479 94 103 139 
-2.628220 -1.723721 8.375350 141 152 197 
-1.906658 1.132923 5.308188 91 49 68 
-2.365815 0.984781 7.840048 148 166 208 
-2.338256 0.880891 7.824483 101 88 114 
-2.354993 -0.060172 7.974410 94 102 144 
-2.331811 -0.094233 7.970022 116 93 113 
-2.335678 -0.301467 7.956881 110 92 117 
-2.270878 0.521297 7.812269 78 68 95 
-2.367892 -1.182630 8.082937 173 190 236 
-2.341645 -0.966375 8.059263 120 105 130 
-2.347622 -1.537020 8.121666 80 88 128 
-2.317774 -1.031296 8.046779 104 83 114 
-2.326029 -1.432191 8.106986 108 88 114 
-1.753538 1.160889 5.162627 88 49 68 
-1.741141 1.253573 5.114107 103 72 93 
-1.741141 1.253573 5.114107 103 72 93 
-2.339894 -2.079174 8.203973 106 92 118 
-2.269598 -0.915660 7.997166 136 110 124 
-2.269598 -0.915660 7.997166 136 110 124 
-2.265533 -0.927959 7.970947 99 70 93 
-2.355770 -2.474297 8.246122 121 137 180 
-2.158314 0.653776 7.673882 81 64 83 
-2.158314 0.653776 7.673882 81 64 83 
-1.713466 1.101244 5.127233 71 48 63 
-1.713466 1.101244 5.127233 71 48 63 
-1.714360 1.042241 5.142732 61 33 47 
-2.163288 -0.413670 7.811466 131 119 136 
-2.163288 -0.413670 7.811466 131 119 136 
-1.669386 1.282907 4.992969 69 42 55 
-2.143576 -0.424456 7.830132 72 58 75 
-2.103392 0.074266 7.694431 67 62 84 
-2.103392 0.074266 7.694431 67 62 84 
-2.125244 -0.411417 7.796851 129 118 135 
-2.102376 -0.399955 7.765242 125 106 130 
-2.157938 -1.521915 7.938832 59 46 64 
-2.157938 -1.521915 7.938832 59 46 64 
-2.007163 0.935154 7.500423 63 55 75 
-2.000820 0.921089 7.504437 117 109 129 
-1.637809 1.090512 5.044853 76 41 58 
-1.982996 0.837146 7.482597 27 31 64 
-2.046809 -0.439551 7.707132 118 104 127 
-2.017468 0.065111 7.619774 119 102 128 
-1.987627 0.620292 7.522561 62 52 73 
-1.965310 0.930833 7.463240 65 55 73 
-1.972790 0.751755 7.479281 22 35 66 
-2.031156 -0.607655 7.722524 64 54 78 
-1.951331 0.769644 7.451770 154 174 237 
-2.078683 -1.593718 7.899149 78 64 88 
-1.983698 0.073071 7.576458 73 55 74 
-1.983698 0.073071 7.576458 73 55 74 
-1.929001 0.745934 7.443934 22 26 49 
-2.077840 -2.361851 7.962633 95 73 93 
-1.569946 1.238134 4.945469 107 70 90 
-1.907810 0.925317 7.415489 52 40 57 
-2.025204 -1.406166 7.813356 78 65 85 
-2.045747 -1.734795 7.915126 126 108 124 
-2.045747 -1.734795 7.915126 126 108 124 
-2.047124 -1.922052 7.886598 137 110 125 
-1.578629 1.033608 5.002342 84 43 59 
-1.578629 1.033608 5.002342 84 43 59 
-1.905096 0.821723 7.427357 19 22 50 
-1.913145 0.657445 7.470619 27 29 53 
-1.907957 0.600767 7.493530 59 43 53 
-1.945255 -0.426128 7.591191 118 108 132 
-1.953746 -0.759419 7.641052 66 46 58 
-2.021953 -2.378744 7.934867 84 69 89 
-1.923587 -0.442290 7.615380 55 46 75 
-1.892911 0.060272 7.505450 82 63 88 
-1.892872 -0.116276 7.503827 58 43 66 
-1.892872 -0.116276 7.503827 58 43 66 
-1.533851 1.077072 4.950742 91 44 60 
-1.961921 -1.724489 7.770093 126 109 127 
-1.964181 -1.714391 7.833915 77 63 76 
-1.964181 -1.714391 7.833915 77 63 76 
-1.963380 -1.931402 7.797669 135 114 129 
-1.930964 -1.395063 7.741831 136 118 139 
-1.825746 0.633326 7.372188 118 103 119 
-1.825746 0.633326 7.372188 118 103 119 
-1.890714 -0.779474 7.596357 76 54 61 
-1.500669 1.234450 4.886044 101 70 93 
-1.829311 0.255433 7.412738 73 55 69 
-1.830836 0.126779 7.395963 69 53 66 
-1.895110 -1.413476 7.696378 80 61 80 
-1.822265 -0.141520 7.466284 125 106 131 
-1.828922 -0.433240 7.494692 122 107 125 
-1.763755 0.707432 7.315748 52 38 53 
-1.765208 0.582897 7.297538 53 42 57 
-1.869284 -1.574075 7.698641 76 61 73 
-1.838973 -1.067306 7.578271 85 61 75 
-1.806234 -0.441045 7.489748 64 53 82 
-1.884957 -2.093194 7.775433 128 113 127 
-1.742557 0.283321 7.298975 119 105 125 
-1.814279 -1.416909 7.608948 129 110 130 
-1.753547 -0.142544 7.400982 66 50 74 
-1.753547 -0.142544 7.400982 66 50 74 
-1.841908 -2.266994 7.761044 84 62 83 
-1.613121 0.810791 6.531397 36 30 34 
-1.692190 0.382718 7.190490 109 90 110 
-1.730766 -0.299730 7.398479 120 102 123 
-1.604236 0.767506 6.496750 114 76 87 
-1.598001 0.783105 6.502844 46 31 41 
-1.548947 0.945506 6.072410 89 57 68 
-1.765109 -1.420833 7.570753 130 107 123 
-1.586202 0.768095 6.509098 51 31 42 
-1.723252 -0.899783 7.451257 72 54 68 
-1.723252 -0.899783 7.451257 72 54 68 
-1.720332 -0.857105 7.433725 67 52 71 
-1.620637 0.090000 6.705093 59 23 29 
-1.703719 -0.464481 7.378050 67 54 81 
-1.774654 -2.261559 7.658581 86 64 80 
-1.395928 1.066689 4.802623 80 55 72 
-1.558560 0.730081 6.434687 120 78 95 
-1.707795 -1.275650 7.491706 71 47 60 
-1.641312 -0.132771 7.255374 119 100 122 
-1.699315 -1.858820 7.548840 88 71 89 
-1.699279 -1.865476 7.573321 85 65 84 
-1.362169 1.027116 4.795537 75 42 61 
-1.362169 1.027116 4.795537 75 42 61 
-1.534043 0.544347 6.722513 105 68 79 
-1.534043 0.544347 6.722513 105 68 79 
-1.599269 -0.160363 7.263544 60 44 58 
-1.605814 -0.334714 7.282916 75 53 68 
-1.508118 0.635390 6.581847 138 95 107 
-1.625236 -1.224499 7.389652 79 54 76 
-1.480811 0.740137 6.399046 52 35 40 
-1.616551 -1.082647 7.393022 78 58 78 
-1.508635 0.526779 6.680254 69 35 44 
-1.638365 -1.737756 7.468224 90 63 80 
-1.621443 -1.854654 7.465481 83 61 76 
-1.461048 0.717334 6.408658 128 84 104 
-1.461048 0.717334 6.408658 128 84 104 
-1.605114 -1.459322 7.428982 72 53 60 
-1.605114 -1.459322 7.428982 72 53 60 
-1.444903 0.802213 6.343147 126 78 93 
-1.444903 0.802213 6.343147 126 78 93 
-1.444903 0.802213 6.343147 126 78 93 
-1.550256 -0.681259 7.257691 79 61 77 
-1.525278 -0.172665 7.180898 84 60 73 
-1.532997 -0.499588 7.226518 69 52 65 
-1.409640 0.947765 6.185289 75 46 55 
-1.566398 -1.566912 7.372507 130 115 133 
-1.562535 -1.860298 7.410761 84 61 81 
-1.409076 0.715976 6.338430 127 88 104 
-1.516968 -0.805338 7.221559 71 56 67 
-1.510511 -0.656538 7.223234 126 107 125 
-1.270518 1.056938 4.688851 78 44 61 
-1.256823 1.244606 4.592409 81 47 53 
-1.488452 -0.882493 7.233842 57 44 55 
-1.488452 -0.882493 7.233842 57 44 55 
-1.522893 -1.976606 7.405735 78 58 82 
-1.498609 -1.453133 7.295902 73 56 72 
-1.240174 1.209909 4.620365 107 72 94 
-1.461215 -0.674349 7.169481 70 46 68 
-1.461215 -0.674349 7.169481 70 46 68 
-1.498739 -1.765116 7.357723 79 62 80 
-1.458967 -0.818795 7.221151 72 55 69 
-1.349127 0.759132 6.246471 130 83 94 
-1.349127 0.759132 6.246471 130 83 94 
-1.462155 -1.086376 7.232888 130 114 133 
-1.471536 -1.459002 7.292298 75 51 64 
-1.467499 -1.619177 7.277080 77 56 69 
-1.467499 -1.619177 7.277080 77 56 69 
-1.211954 1.216180 4.559745 154 114 140 
-1.203779 1.237749 4.532506 74 42 50 
-1.217754 0.846639 4.636224 98 58 67 
-1.217754 0.846639 4.636224 98 58 67 
-1.420641 -0.899209 7.192383 59 46 60 
-1.216762 0.847425 4.644391 99 59 69 
-1.388253 -0.354384 7.058679 63 46 57 
-1.439519 -1.981150 7.305960 86 66 80 
-1.185425 1.195546 4.583666 166 119 140 
-1.256858 0.853755 6.162942 96 49 65 
-1.286246 0.407124 6.581641 68 26 33 
-1.310394 -0.784548 6.554427 75 27 33 
-1.344840 -1.483431 7.158936 72 59 72 
-1.356560 -1.910066 7.209226 128 115 133 
-1.286146 -0.793872 6.550461 136 82 95 
-1.293523 -1.172247 6.490649 68 33 37 
-1.138973 1.204131 4.560008 125 82 105 
-1.325845 -1.453948 7.128208 90 62 84 
-1.216995 0.803603 6.116864 79 37 52 
-1.126421 1.199028 4.579285 170 121 148 
-1.252481 -1.122402 6.436666 49 29 34 
-1.289774 -1.497464 7.105073 51 33 42 
-1.245925 -1.223897 6.311028 87 49 64 
-1.242787 -1.177329 6.317487 132 85 99 
-1.250051 -1.114341 7.022413 131 107 120 
-1.155093 0.922497 5.966819 79 51 63 
-1.155093 0.922497 5.966819 79 51 63 
-1.104714 0.834652 4.586159 119 75 89 
-1.150112 0.795441 6.072521 77 38 53 
-1.089605 1.104912 4.576496 109 75 100 
-1.230377 -1.129630 6.990242 79 56 72 
-1.189682 -0.595690 6.535409 43 22 24 
-1.189682 -0.595690 6.535409 43 22 24 
-1.142874 0.663466 6.183535 101 56 68 
-1.142874 0.663466 6.183535 101 56 68 
-1.171290 0.081628 6.592362 50 20 27 
-1.223082 -1.516013 7.038043 71 49 63 
-1.114114 0.716886 6.023021 69 41 55 
-1.144885 -0.109138 6.500203 53 21 24 
-1.206696 -1.953213 6.984052 113 108 134 
-1.198173 -1.973208 7.012537 124 109 132 
-1.129157 0.169098 6.516696 88 42 50 
-1.154378 -0.933184 6.454714 60 29 35 
-1.130437 -0.013933 6.550975 61 32 44 
-1.176956 -1.622688 6.990351 72 57 79 
-1.140064 -0.978824 6.518265 125 99 112 
-1.095098 0.165396 6.464759 85 41 50 
-1.156653 -1.927322 7.016495 75 65 95 
-1.092135 -0.429679 6.531960 58 29 42 
-1.138197 -2.030468 7.036286 82 59 80 
-1.048796 0.712767 5.992464 74 39 55 
-1.073778 0.071750 6.482682 53 27 36 
-1.097545 -1.154129 6.230735 42 20 23 
-1.117248 -1.823627 6.967455 65 51 68 
-1.117248 -1.823627 6.967455 65 51 68 
-1.053839 0.220992 6.438099 47 19 26 
-1.050317 0.266544 6.426992 39 15 22 
-1.077453 -0.931612 6.276652 110 68 82 
-1.110953 -2.025897 6.991403 82 68 94 
-1.110510 -2.173611 7.014862 76 58 79 
-1.110510 -2.173611 7.014862 76 58 79 
-1.101889 -2.043074 6.969044 132 117 136 
-1.091643 -2.025401 6.958352 89 69 94 
-1.091643 -2.025401 6.958352 89 69 94 
-1.093328 -2.174553 6.984792 69 54 71 
-0.966470 1.108057 4.588170 88 52 71 
-1.050787 -1.933806 6.910769 85 64 86 
-0.969300 0.796739 5.891060 75 43 54 
-1.004104 -0.747986 6.168064 131 84 98 
-0.978982 -0.101881 6.217107 53 24 29 
-1.006324 -1.160329 6.117911 42 21 21 
-0.971951 0.086313 6.220845 112 65 74 
-1.003759 -1.557322 6.289640 138 90 106 
-0.953550 0.390961 6.162179 67 26 39 
-0.951288 0.478406 6.140843 63 25 30 
-1.010014 -1.819971 6.862928 73 61 87 
-1.010014 -1.819971 6.862928 73 61 87 
-0.955034 0.170237 6.188499 60 27 35 
-0.951119 0.237346 6.196449 62 32 37 
-0.989442 -1.522890 6.290347 81 30 35 
-0.962768 -0.847077 6.116337 50 22 37 
-0.973576 -1.289162 6.171020 58 23 33 
-0.960466 -0.771039 6.155591 52 21 23 
-0.977567 -1.841011 6.822675 71 55 73 
-0.977567 -1.841011 6.822675 71 55 73 
-0.967933 -1.826752 6.826365 125 107 128 
-0.911147 0.988957 4.602807 108 57 78 
-0.922410 -0.105690 6.148730 50 21 27 
-0.922410 -0.105690 6.148730 50 21 27 
-0.910004 0.387086 6.118305 61 20 34 
-0.910004 0.387086 6.118305 61 20 34 
-0.897657 1.239602 4.528642 96 54 63 
-0.914528 -0.128521 6.150702 98 72 92 
-0.912110 0.690860 4.357009 78 53 59 
-0.926753 -0.600428 6.151469 49 19 24 
-0.909019 -0.004699 6.176939 56 26 35 
-0.944121 -1.572941 6.252455 76 25 29 
-0.943935 -1.574807 6.255264 76 25 32 
-0.900921 0.078336 6.142341 111 64 71 
-0.890612 1.007168 4.601048 104 54 73 
-0.888187 1.107350 4.591589 90 50 72 
-0.901124 -0.291640 6.053988 49 23 25 
-0.921558 -1.277694 6.100833 133 81 93 
-0.921558 -1.277694 6.100833 133 81 93 
-0.884559 0.071906 6.131346 59 25 34 
-0.876663 0.231385 6.103311 57 21 30 
-0.879767 -0.071543 6.136587 55 22 30 
-0.879767 -0.071543 6.136587 55 22 30 
-0.920116 -2.048499 6.790545 85 62 78 
-0.870796 1.203016 4.562435 122 76 98 
-0.870796 1.203016 4.562435 122 76 98 
-0.906190 -1.538840 6.162146 130 73 88 
-0.885964 -1.881776 6.764044 59 48 72 
-0.885448 -1.951123 6.758951 122 110 135 
-0.855003 -0.703076 6.172521 68 31 41 
-0.843137 1.238773 4.525004 105 60 75 
-0.813809 0.851656 5.648733 125 94 108 
-0.865552 -1.487135 5.959754 74 35 40 
-0.837053 0.749595 4.711030 71 54 64 
-0.810190 0.866894 5.626309 52 41 50 
-0.852024 -1.421929 6.025251 50 22 27 
-0.812507 0.302904 5.785733 170 164 154 
-0.818664 1.106212 4.591594 92 60 81 
-0.815163 -0.456279 6.086684 74 39 48 
-0.839703 -1.632872 6.121249 151 99 114 
-0.833505 -1.182673 5.951555 43 22 21 
-0.821391 -1.296809 5.974569 91 42 54 
-0.805226 1.087491 4.592860 147 102 123 
-0.777179 0.684434 5.721286 68 39 54 
-0.778432 0.174982 5.893369 77 40 41 
-0.792826 -1.968344 6.671731 123 113 133 
-0.769122 -0.252378 6.059396 38 17 16 
-0.782369 -1.985531 6.655379 66 45 61 
-0.755558 -0.160182 6.027014 140 120 105 
-0.760511 -0.491578 6.059196 107 61 67 
-0.772994 -1.038060 5.985458 71 33 45 
-0.772994 -1.038060 5.985458 71 33 45 
-0.779913 -1.318405 5.980747 78 39 45 
-0.780128 -1.316828 5.978558 75 38 42 
-0.769993 -1.018826 6.000290 107 77 92 
-0.744205 -0.275415 6.021342 113 89 77 
-0.732119 0.411531 5.842592 61 28 31 
-0.738902 -0.166864 6.031949 120 103 93 
-0.751942 -1.982116 6.611648 75 54 71 
-0.723618 -0.284473 5.972707 59 26 30 
-0.739950 -2.052438 6.610649 83 54 74 
-0.739950 -2.052438 6.610649 83 54 74 
-0.714973 0.238202 5.783875 185 174 163 
-0.714973 0.238202 5.783875 185 174 163 
-0.708147 0.351797 5.741707 52 34 33 
-0.688408 0.249860 5.791754 129 111 99 
-0.674863 0.129622 5.919186 116 97 70 
-0.672079 0.228901 5.807990 169 155 146 
-0.672658 0.015391 5.898445 155 147 134 
-0.672658 0.015391 5.898445 155 147 134 
-0.671820 0.050934 5.860183 170 156 130 
-0.665656 -0.012029 5.966390 45 27 17 
-0.672184 -0.523804 5.968486 106 66 73 
-0.656240 0.127436 5.924159 120 99 78 
-0.673173 -1.987656 6.537550 72 48 68 
-0.651043 0.137602 5.939677 98 75 54 
-0.689501 -1.325827 5.897506 52 22 32 
-0.651720 0.008174 5.876128 188 177 154 
-0.647871 0.377706 5.746556 33 20 24 
-0.649884 -0.189661 5.958316 60 35 32 
-0.648033 0.020213 5.796894 88 59 50 
-0.636353 0.123016 5.915680 116 99 80 
-0.636087 0.132972 5.916235 99 76 60 
-0.673279 -1.649577 6.001531 145 94 111 
-0.642308 -0.307263 5.925460 20 10 11 
-0.671003 -1.311344 5.861034 129 78 87 
-0.671003 -1.311344 5.861034 129 78 87 
-0.624571 0.140073 5.933902 148 139 113 
-0.632631 0.305648 5.732805 165 153 136 
-0.622872 0.129080 5.933067 74 55 47 
-0.640400 -1.968396 6.431782 51 31 46 
-0.661352 -1.204053 5.777231 48 23 26 
-0.658022 -1.654209 5.978553 104 53 61 
-0.622500 0.003744 5.857001 82 59 46 
-0.637783 -2.005649 6.414705 146 136 138 
-0.621012 0.294124 5.733935 108 90 83 
-0.617762 -0.033099 5.882340 138 121 111 
-0.632912 -2.011509 6.385186 197 194 190 
-0.630041 -1.998804 6.388615 80 72 79 
-0.619602 -0.527794 5.916105 54 27 36 
-0.608120 0.741962 5.547891 71 41 52 
-0.599631 0.097664 5.923132 83 70 51 
-0.601810 0.346159 5.704593 43 25 37 
-0.610173 -0.486897 5.891343 45 20 21 
-0.595561 -0.011919 5.902270 161 151 124 
-0.595727 -1.868800 6.422623 56 36 58 
-0.598023 -2.032417 6.379559 148 144 165 
-0.621268 -1.333690 5.765452 47 22 27 
-0.600426 -0.901448 5.764201 120 66 82 
-0.599572 -1.519934 5.962820 79 35 41 
-0.578275 -0.484754 5.875570 54 22 34 
-0.577624 -1.939232 6.324806 80 111 115 
-0.570223 0.665101 5.515648 45 31 41 
-0.569824 -0.414042 5.855667 96 60 65 
-0.596461 -1.328800 5.746335 45 21 27 
-0.596461 -1.328800 5.746335 45 21 27 
-0.619221 0.923068 4.672140 77 39 58 
-0.558750 -1.937869 6.335159 26 34 45 
-0.575167 -0.872439 5.745323 43 19 27 
-0.557068 0.676139 5.484344 69 43 57 
-0.553142 -1.999388 6.314192 66 65 63 
-0.547101 -1.973717 6.300143 59 100 111 
-0.566154 -0.886381 5.709779 86 40 53 
-0.544875 -0.371028 5.823516 55 25 27 
-0.573400 -1.216058 5.697058 46 21 23 
-0.568591 -1.679504 5.877131 156 111 128 
-0.538708 0.676217 5.476536 132 88 105 
-0.538686 0.677157 5.476472 131 88 105 
-0.551557 -1.504596 5.907515 81 39 55 
-0.533428 -1.957484 6.273297 14 30 39 
-0.537053 -1.476509 5.899557 98 53 73 
-0.537053 -1.476509 5.899557 98 53 73 
-0.515886 -1.979895 6.277842 54 96 115 
-0.515886 -1.979895 6.277842 54 96 115 
-0.507893 0.187049 5.738923 71 27 39 
-0.507893 0.187049 5.738923 71 27 39 
-0.512768 -0.117713 5.769379 67 25 37 
-0.541950 -1.629697 5.809804 63 40 48 
-0.522129 -0.521573 5.679220 68 32 31 
-0.503584 -1.954549 6.256027 74 111 122 
-0.521609 -0.886350 5.694916 63 24 37 
-0.519619 -0.838334 5.683602 60 26 32 
-0.511283 -1.491516 5.866097 102 47 53 
-0.511283 -1.491516 5.866097 102 47 53 
-0.509014 -0.800641 5.678467 132 85 96 
-0.485880 -1.997859 6.243334 130 125 125 
-0.510091 -1.560529 5.807322 99 43 47 
-0.471641 0.253801 5.701035 73 42 54 
-0.468220 0.338058 5.694412 60 18 31 
-0.485295 -0.762638 5.647313 124 73 85 
-0.486326 -0.993293 5.632676 109 66 79 
-0.486326 -0.993293 5.632676 109 66 79 
-0.448678 0.327127 5.672748 97 43 51 
-0.468971 -0.944847 5.654608 68 26 38 
-0.446276 0.777218 5.386004 90 46 61 
-0.439981 -0.161296 5.680123 54 20 24 
-0.445264 0.649099 5.389558 135 91 111 
-0.422039 0.249743 5.660484 60 23 35 
-4.230348 -4.195097 -30.049788 58 33 42 
-0.430254 -0.872972 5.688726 47 21 29 
-0.421768 -0.410125 5.644205 124 68 81 
-0.470770 1.062055 4.798393 95 50 72 
-0.441797 -1.260400 5.589907 101 55 62 
-0.441797 -1.260400 5.589907 101 55 62 
-0.398001 0.328015 5.607976 69 21 35 
-0.402408 0.019696 5.636585 64 24 35 
-0.407939 -0.842491 5.683830 116 69 76 
-0.407180 -1.020873 5.711449 50 21 24 
-0.359081 -1.903787 6.234131 63 41 62 
-0.386183 0.607924 5.440126 148 101 121 
-0.374776 0.497999 5.515207 154 106 122 
-0.442373 1.313007 4.730245 81 64 74 
-0.384948 0.735981 5.305462 62 38 46 
-0.384948 0.735981 5.305462 62 38 46 
-0.423780 0.935701 4.857564 72 40 55 
-0.382054 -1.355104 5.668307 146 93 111 
-0.351880 0.732158 5.288039 67 34 49 
-0.318818 -0.889052 5.684254 27 13 13 
-0.287738 0.650308 5.227405 64 35 49 
-0.250370 -0.382916 5.686244 62 30 39 
-0.232417 -1.948983 6.078790 131 112 134 
-0.228977 -1.905021 6.081176 127 114 138 
-0.237154 0.219143 5.635496 58 24 33 
-0.306695 1.011775 4.970803 67 37 52 
-0.230750 0.211536 5.611065 70 33 41 
0.194671 1.066483 8.525948 133 83 100 
-0.271954 0.650713 5.208470 133 83 100 
-0.289713 1.237389 4.955283 137 94 113 
-0.222423 0.053770 5.640154 56 25 33 
-0.208136 -1.653475 6.030926 85 58 82 
-0.238166 -1.085258 5.660036 72 30 43 
-0.198577 -1.623672 6.018386 96 71 92 
-0.275581 1.121983 4.987783 72 35 50 
-0.257656 0.954231 5.017992 64 30 38 
-0.254737 1.035359 5.012793 70 34 50 
-0.196002 -0.383539 5.630593 50 23 30 
-0.249663 1.237778 4.967179 99 67 83 
-0.147398 -1.818639 5.987553 88 71 93 
-0.147398 -1.818639 5.987553 88 71 93 
-0.169138 0.160079 5.462257 135 86 95 
-0.155363 -0.032621 5.581545 57 27 34 
-0.216899 1.253253 4.950988 83 52 69 
-0.165398 0.151371 5.450278 89 41 57 
-0.165398 0.151371 5.450278 89 41 57 
-0.145628 0.305066 5.529930 62 32 44 
-0.197209 -0.885903 5.372657 139 87 99 
-0.172376 -1.261857 5.563335 105 64 78 
-0.158540 0.115889 5.449569 153 101 116 
-0.155111 0.157483 5.440640 130 84 95 
-0.164306 -0.720102 5.510030 53 30 35 
-0.164306 -0.720102 5.510030 53 30 35 
-0.146179 -0.378384 5.564002 58 27 34 
2.766110 3.323839 23.606339 95 51 71 
-0.150830 0.170462 5.441473 73 27 33 
-0.111609 -1.931630 5.972220 82 54 77 
-0.129051 0.323599 5.508146 70 36 45 
-0.192737 0.803986 5.014348 86 53 59 
-0.127173 -0.823193 5.451093 96 59 69 
-0.123439 -0.707901 5.388496 57 24 25 
-0.152600 1.270176 4.926339 66 35 41 
-0.050032 -1.525566 5.851081 102 72 85 
-0.125917 0.568096 5.083180 150 119 136 
-0.134724 0.874170 4.991531 91 56 57 
-0.069021 -0.159974 5.498862 62 29 36 
-0.063549 0.203575 5.460100 39 17 24 
-0.118630 1.155356 4.986333 59 41 48 
-0.056423 0.120634 5.433578 66 29 35 
-0.109909 0.602790 5.046568 64 49 54 
-0.094521 1.018570 4.980385 47 40 42 
0.037335 -1.786882 5.807257 98 76 99 
-0.050799 0.592285 4.990145 136 89 107 
0.004279 0.254146 5.288128 131 81 93 
0.057610 -1.546521 5.742874 93 67 86 
0.060222 -1.159823 5.700378 130 113 133 
0.029881 0.370586 5.348133 71 36 51 
0.029881 0.370586 5.348133 71 36 51 
0.067392 -1.816537 5.781452 93 62 81 
0.080481 -1.656989 5.765515 128 120 140 
-0.026785 1.158501 4.894536 66 44 51 
-0.026785 1.158501 4.894536 66 44 51 
-0.028213 0.937670 4.912215 60 33 42 
0.057062 0.295128 5.367505 64 27 31 
0.105833 -1.181506 5.663326 100 69 82 
-2.043283 -0.649142 -4.923855 55 38 44 
0.008103 0.934847 4.884441 66 32 46 
0.122908 -1.565728 5.696908 58 42 61 
0.119394 -1.650696 5.690046 84 74 92 
0.013119 0.748859 4.894620 141 88 106 
0.041640 0.545696 5.035880 84 56 57 
0.138771 -1.298938 5.646478 131 111 131 
0.105950 0.342859 5.292385 58 26 31 
0.075403 -0.110767 5.177284 133 83 100 
0.034453 1.222332 4.806669 121 77 97 
0.074661 0.477349 5.061777 155 101 118 
0.155610 -1.477925 5.638081 93 68 90 
0.171229 -1.491600 5.626063 95 67 80 
0.178192 -0.922941 5.554852 100 66 75 
0.186507 -1.584692 5.621195 101 71 81 
0.186507 -1.584692 5.621195 101 71 81 
0.197711 -1.675444 5.616276 97 65 88 
0.213287 -1.374920 5.583134 80 63 86 
0.111116 -0.078778 5.009646 121 68 80 
0.144721 0.318558 5.103726 142 99 119 
0.216956 -1.661662 5.581829 138 121 138 
0.224408 -1.213210 5.554172 99 66 79 
0.225387 -1.683646 5.593726 107 76 96 
0.222349 -0.820077 5.499713 109 76 88 
0.231201 -1.769679 5.600877 89 70 98 
0.231201 -1.769679 5.600877 89 70 98 
0.235080 -1.829215 5.587239 94 70 94 
0.210804 -0.384738 5.333603 126 96 108 
0.239235 -0.522579 5.466888 97 66 74 
0.180321 0.004151 5.150394 34 22 21 
0.113653 1.007117 4.759650 64 36 49 
0.248731 -1.308755 5.537119 92 64 78 
0.248754 -1.094124 5.500063 127 107 123 
0.249570 -0.344245 5.427288 68 46 58 
0.249570 -0.344245 5.427288 68 46 58 
0.251604 -1.481410 5.530291 133 119 139 
0.266959 -1.481247 5.518270 129 113 133 
0.142293 0.574954 4.802792 127 84 100 
0.281616 -1.222730 5.481280 91 68 76 
0.185491 -0.160288 4.986045 166 115 132 
0.212338 0.174112 5.015331 138 90 108 
0.303252 -1.371565 5.475480 91 62 80 
0.336342 -1.523752 5.467967 101 71 81 
0.195917 1.345504 4.631406 59 55 62 
0.352275 -1.742820 5.469663 66 49 68 
0.304272 0.040795 5.075857 67 34 31 
0.372421 -0.680711 5.340106 79 63 81 
0.376406 -0.550941 5.322774 70 59 75 
0.390760 -0.679968 5.327849 137 113 135 
0.398159 -1.694674 5.411513 95 62 79 
0.395758 -0.869582 5.331676 92 61 77 
0.399975 -0.955426 5.339263 100 62 76 
0.412113 -1.057295 5.333934 88 64 77 
0.432549 -0.715067 5.290162 74 59 78 
0.435159 -0.699546 5.291156 130 120 144 
0.446394 -1.692292 5.375740 132 113 134 
0.446575 -1.700585 5.363163 81 57 71 
0.451346 -0.853463 5.283640 94 66 91 
0.453534 -0.735480 5.276208 133 119 137 
0.421065 0.698136 5.008151 74 37 53 
0.470401 -1.128510 5.294381 87 63 77 
0.456056 0.413968 5.136286 73 48 68 
0.474551 -1.090579 5.272500 89 65 79 
0.481723 -0.371371 5.200466 147 129 150 
0.486972 -0.529461 5.216012 120 103 122 
0.492435 -0.736225 5.229192 71 53 69 
0.499503 -1.547027 5.308918 127 112 135 
0.498053 -1.248422 5.276485 85 61 75 
0.502801 -1.577206 5.308456 88 67 80 
0.490452 0.538824 5.084515 85 55 65 
0.520065 -1.348552 5.304361 81 60 70 
0.505789 -0.718191 5.207537 86 72 97 
0.519020 -1.130679 5.234239 88 62 82 
0.513842 -0.004035 5.135683 64 51 63 
0.484644 1.275900 4.912586 60 57 68 
0.534377 -0.026802 5.111199 116 100 127 
0.534694 0.185479 5.098298 81 56 68 
0.548473 -1.250668 5.217114 87 61 75 
0.561931 -1.722090 5.253304 77 59 82 
0.574174 -1.390745 5.208843 91 68 90 
0.559939 1.132117 4.993404 113 99 125 
0.561197 0.631494 5.016991 74 47 57 
0.566055 1.044073 4.989149 59 38 55 
0.592617 -0.972726 5.167395 60 47 57 
0.592617 -0.972726 5.167395 60 47 57 
0.595368 -0.950772 5.156701 80 70 80 
0.590023 0.319833 5.032919 121 108 128 
0.607030 -1.247571 5.156906 127 113 136 
0.589860 1.074917 4.946909 92 78 99 
0.597902 0.680433 4.972636 51 31 47 
0.597902 0.680433 4.972636 51 31 47 
0.599747 0.779905 4.955508 60 43 65 
0.611494 0.447251 4.982800 85 60 78 
0.619359 0.526089 4.973937 121 117 139 
0.619359 0.526089 4.973937 121 117 139 
0.618182 0.756075 4.951423 71 57 74 
0.641163 -1.090861 5.093880 86 64 72 
0.626393 0.943636 4.926567 110 105 130 
0.628081 0.666934 4.947539 112 108 129 
0.646414 -1.159066 5.101926 116 109 126 
0.632068 0.631879 4.945110 119 104 127 
0.627626 1.023960 4.909305 79 59 81 
0.633683 0.783419 4.930209 67 49 76 
0.660543 -1.357662 5.115250 85 62 81 
0.660625 -0.578358 5.065509 59 42 55 
0.647576 0.294752 4.971930 77 61 74 
0.672870 -0.970110 5.062229 72 49 57 
0.684081 -1.585484 5.124281 66 51 70 
0.674832 -1.208257 5.075688 92 67 81 
0.677839 -1.397461 5.089692 132 114 128 
0.659330 0.473536 4.925958 98 74 96 
0.671392 -0.327687 5.000045 82 60 76 
0.672742 -0.106245 4.986219 124 100 116 
0.656436 1.154077 4.869075 106 100 133 
0.691149 -1.561322 5.114939 127 115 135 
0.697248 -1.540203 5.103701 130 122 145 
0.676215 0.161156 4.943877 88 62 77 
0.676200 0.461933 4.922214 73 55 78 
0.696487 -1.098361 5.065788 86 62 77 
0.678768 0.425365 4.920965 127 105 119 
0.699292 -1.408680 5.075048 89 58 76 
0.677370 0.758775 4.872684 132 108 119 
0.678432 1.020969 4.851163 75 57 75 
0.697147 -0.737461 4.994044 126 108 131 
0.689463 0.772171 4.880371 73 54 69 
0.689463 0.772171 4.880371 73 54 69 
0.638149 1.374168 4.703063 106 121 136 
0.700634 0.914291 4.853030 75 57 79 
0.699290 1.039984 4.837561 118 94 116 
0.712273 0.480192 4.867735 129 106 123 
0.715969 0.375806 4.863376 125 109 128 
0.719279 0.908783 4.839575 79 62 81 
0.725817 0.783319 4.844134 114 109 132 
0.742767 -0.755824 4.965203 116 108 130 
0.738858 -0.027594 4.896629 81 63 80 
0.735021 0.809031 4.833247 124 122 146 
0.752207 -0.477445 4.940934 64 46 64 
0.763534 -0.957562 4.996325 136 117 135 
0.726497 1.150728 4.787642 82 56 73 
0.726103 1.075209 4.785584 120 100 120 
0.752233 -0.233158 4.918283 67 44 54 
0.761265 -0.412002 4.931655 73 50 64 
0.761464 -0.774884 4.950851 83 59 68 
0.774182 -1.087175 4.970473 129 114 136 
0.762682 -0.043568 4.882010 91 78 87 
0.781207 -1.365457 4.982783 71 52 72 
0.756104 0.596774 4.812968 69 44 47 
0.796618 -1.560512 5.003771 124 110 133 
0.798910 -1.420620 4.977452 102 72 88 
0.793194 -1.236043 4.953194 79 55 76 
0.793656 -1.286226 4.951883 79 52 65 
0.775401 0.873368 4.778600 129 116 134 
0.775401 0.873368 4.778600 129 116 134 
0.786511 0.154164 4.842971 75 58 77 
0.807398 -1.173167 4.952673 63 45 59 
0.805103 -0.778046 4.922680 66 48 56 
0.786695 0.737137 4.781805 105 78 83 
0.813674 -0.778610 4.901231 57 41 48 
0.793018 0.917015 4.766166 86 66 84 
0.793153 0.792574 4.763148 139 126 149 
0.791704 1.054959 4.742202 126 107 127 
0.794897 0.928592 4.747285 130 124 154 
0.799504 0.915009 4.745949 81 68 81 
0.836575 -1.175142 4.926213 67 50 68 
0.818826 -0.235412 4.836072 63 42 48 
0.817899 0.128774 4.807114 79 56 68 
0.833797 -1.146886 4.908001 129 112 131 
0.836487 -1.114672 4.908512 75 56 76 
0.809488 0.787330 4.749971 135 126 152 
0.811894 0.363087 4.776126 83 62 82 
0.831813 -0.392889 4.848532 76 64 86 
0.812469 0.584905 4.753366 42 39 83 
0.839610 -0.992826 4.891559 71 58 76 
0.840740 -0.381114 4.837766 72 56 77 
0.844022 -0.590183 4.851148 71 51 66 
0.823714 1.110781 4.707611 122 106 133 
0.849796 -0.968925 4.869376 66 55 64 
0.829669 0.412985 4.754724 130 103 115 
0.859037 -1.170830 4.882979 67 49 64 
0.859037 -1.170830 4.882979 67 49 64 
0.832167 0.927301 4.701485 130 121 149 
0.837371 0.471912 4.735300 94 73 88 
0.834128 1.088631 4.685836 60 44 57 
0.871271 -1.357166 4.884978 95 70 97 
0.871271 -1.357166 4.884978 95 70 97 
0.859243 -0.221051 4.798718 130 111 130 
0.855635 0.837987 4.693173 140 122 137 
0.873144 -0.048986 4.771237 140 116 129 
0.891767 -1.273334 4.853454 125 114 140 
0.894871 -1.303833 4.862300 119 96 112 
0.894871 -1.303833 4.862300 119 96 112 
0.898647 -1.430836 4.868114 126 106 126 
0.901691 -1.524355 4.875131 84 60 81 
0.863495 0.905403 4.674594 65 48 61 
0.887547 -0.352560 4.779799 78 54 64 
0.894036 -0.589852 4.801567 79 53 74 
0.905046 -1.294473 4.850399 72 55 74 
0.895418 -0.429440 4.775783 83 58 64 
0.868229 1.133932 4.641786 121 107 133 
0.904475 -0.780086 4.804091 88 60 72 
0.916343 -1.613774 4.860138 81 58 74 
0.921548 -1.175470 4.840065 102 94 111 
0.921548 -1.175470 4.840065 102 94 111 
0.922692 -1.186607 4.838991 65 51 69 
0.929564 -1.181508 4.837460 69 56 75 
0.916646 0.252883 4.710449 135 115 130 
0.921519 0.173158 4.716836 136 115 132 
0.933473 -0.436915 4.766636 65 44 56 
0.933473 -0.436915 4.766636 65 44 56 
0.932713 -0.979387 4.783434 106 93 103 
0.921861 0.125714 4.706767 118 93 111 
0.946654 -0.965137 4.780922 135 111 124 
0.911310 1.121908 4.602740 79 70 101 
0.924136 0.721719 4.645230 121 117 139 
0.933736 0.389496 4.644179 141 115 128 
0.934215 0.776520 4.625268 133 119 136 
0.954858 -0.436297 4.722958 79 49 63 
0.939213 0.264509 4.649561 93 73 93 
0.944774 0.621094 4.627521 118 106 124 
0.940902 1.130254 4.585757 140 120 136 
0.948252 1.103339 4.591700 70 60 71 
0.960658 0.484178 4.620696 95 67 74 
0.990929 -1.184263 4.756205 79 61 79 
0.963493 0.234421 4.633065 98 69 86 
0.956557 0.777104 4.591664 124 111 133 
0.992384 -0.797955 4.706827 134 122 140 
0.979100 0.262943 4.611073 86 62 79 
0.984481 0.207839 4.617384 137 116 129 
0.984481 0.207839 4.617384 137 116 129 
1.016506 -0.842083 4.689581 85 59 77 
0.999996 0.604813 4.593258 68 47 61 
1.003504 0.145355 4.610782 125 108 128 
1.003984 0.156124 4.611335 99 75 97 
0.988081 1.116460 4.535503 131 114 131 
1.013804 0.133311 4.598702 66 47 59 
1.004056 0.765605 4.541812 131 112 126 
1.037582 -0.826424 4.675378 81 57 70 
1.037582 -0.826424 4.675378 81 57 70 
1.015690 0.643521 4.545072 88 62 72 
1.046757 -0.448333 4.642012 74 50 64 
1.011200 1.036041 4.509338 93 69 87 
1.046569 -0.844216 4.644484 94 70 92 
1.055525 -0.838479 4.651846 123 101 116 
1.061195 -0.990653 4.665886 84 63 91 
1.021419 0.864240 4.511583 120 104 120 
1.060508 -0.997133 4.656780 120 109 126 
1.030391 0.739669 4.524260 63 45 57 
1.030391 0.739669 4.524260 63 45 57 
1.040539 0.143496 4.564162 136 113 129 
1.028829 1.107556 4.496217 119 105 120 
1.028604 1.108239 4.495776 123 104 119 
1.040026 1.055397 4.474120 135 112 128 
1.060325 0.256140 4.542199 88 65 84 
1.097238 -1.614350 4.672510 114 96 114 
1.106079 -1.391208 4.656064 34 30 47 
1.081592 -0.231298 4.563462 127 115 132 
1.085439 -0.463425 4.576108 67 46 63 
1.085439 -0.463425 4.576108 67 46 63 
1.096606 -1.073224 4.617372 98 71 86 
1.096606 -1.073224 4.617372 98 71 86 
1.088892 -0.111668 4.544972 84 62 81 
1.086206 0.162603 4.515058 116 98 120 
1.098407 -0.095437 4.542200 124 107 126 
1.098407 -0.095437 4.542200 124 107 126 
1.082120 0.463496 4.485356 88 62 77 
1.099900 0.177724 4.510375 140 122 136 
1.078716 1.047128 4.426161 133 115 129 
1.105630 0.250364 4.501538 82 62 88 
1.113321 0.187664 4.497954 81 62 78 
1.113321 0.187664 4.497954 81 62 78 
1.098598 1.042677 4.411016 137 120 139 
1.125875 0.098746 4.483796 82 59 77 
1.140273 -0.066145 4.493742 65 49 60 
1.131470 0.724130 4.411959 63 44 61 
1.129373 1.085168 4.392565 56 53 62 
1.187624 0.071636 4.417870 135 113 131 
1.202970 -0.491314 4.458222 137 112 128 
1.196098 0.231953 4.409108 143 125 135 
1.183228 0.857831 4.361741 60 48 64 
1.183228 0.857831 4.361741 60 48 64 
1.202810 0.213401 4.389429 103 74 92 
1.215320 -0.070668 4.415479 73 51 69 
1.214764 0.122613 4.392089 128 108 124 
1.240886 -0.089975 4.389049 134 111 128 
1.165807 1.233013 4.184707 17 21 42 
1.266680 -0.346353 4.376939 84 62 75 
1.248662 0.802002 4.276760 94 63 71 
1.248662 0.802002 4.276760 94 63 71 
1.253594 0.699172 4.282472 127 102 116 
1.269520 0.233186 4.321647 78 53 64 
1.271967 0.061051 4.327780 129 105 119 
1.282669 -0.159065 4.347208 129 106 123 
1.282984 0.233501 4.299722 67 49 61 
1.282984 0.233501 4.299722 67 49 61 
1.220267 1.319383 4.139057 15 22 32 
1.286506 0.876308 4.237191 123 99 112 
1.240479 1.221453 4.122698 162 182 251 
1.603316 -1.359898 4.691425 24 19 22 
1.644604 -1.553854 4.673142 56 43 58 
1.532262 1.130208 4.383442 41 37 52 
1.678448 -1.557001 4.679222 150 162 192 
1.719109 -1.626967 4.660464 62 63 94 
1.714222 -1.180449 4.632942 102 119 145 
1.744355 -0.333513 4.528006 169 194 231 
1.733022 0.001843 4.502971 68 68 102 
1.718993 0.809582 4.454436 111 132 168 
1.738455 0.312477 4.472985 66 71 107 
1.589125 1.203550 4.215247 56 55 67 
1.814393 -0.692520 4.596162 150 170 206 
1.814393 -0.692520 4.596162 150 170 206 
1.814024 -0.691591 4.595677 148 170 208 
1.816253 -0.716684 4.596435 153 174 211 
1.737845 0.661737 4.439721 51 57 86 
1.740205 0.927706 4.429341 86 100 127 
1.741799 0.753961 4.429713 64 69 101 
1.821535 -0.395428 4.571848 90 98 144 
1.741331 0.854937 4.421183 59 65 99 
1.744774 0.952292 4.397144 34 57 98 
1.747841 1.119851 4.376483 77 98 129 
1.731375 0.970328 4.327373 132 152 193 
1.745908 0.942017 4.347488 38 42 71 
1.745908 0.942017 4.347488 38 42 71 
1.747413 0.959617 4.346731 142 170 204 
1.842595 -0.660120 4.518318 159 181 221 
1.864236 -0.152816 4.527016 106 113 164 
1.626745 1.368084 4.127245 26 26 38 
1.872964 -0.004883 4.512046 115 121 167 
1.872964 -0.004883 4.512046 115 121 167 
1.856986 -0.607701 4.499928 120 130 179 
1.856986 -0.607701 4.499928 120 130 179 
1.905820 0.294281 4.448873 103 111 160 
2.870084 -1.720167 5.357738 45 49 78 
-2.762239 1.528761 6.639553 58 70 72 
-2.694828 1.611493 7.771812 29 36 42 
-2.626249 1.603563 7.593124 92 104 108 
-2.626249 1.603563 7.593124 92 104 108 
-2.655423 1.369430 7.998390 25 30 49 
-2.655194 0.564317 8.106342 23 31 49 
-2.641760 0.999616 8.065659 98 109 144 
-2.641840 0.723965 8.091178 94 109 142 
-2.694361 -1.153776 8.364939 40 50 75 
-2.640196 0.581434 8.118574 87 100 132 
-2.623533 1.003636 8.068427 38 51 91 
-2.624553 0.916276 8.067137 36 44 91 
-2.640790 0.398269 8.140248 96 109 148 
-2.647756 -0.352584 8.248375 105 114 153 
-2.647137 -0.412427 8.237726 104 113 152 
-2.660261 -1.180139 8.339739 95 104 141 
-2.654848 -0.978735 8.336487 108 120 158 
-2.592442 0.917483 8.108387 143 158 201 
-2.412582 1.606488 7.715003 26 32 45 
-2.299334 1.542534 6.661950 52 63 56 
-2.397563 1.576726 7.673893 53 49 63 
-2.391604 1.268122 7.771670 147 164 206 
-2.389896 1.274554 7.823295 148 166 206 
-2.373164 1.522965 7.757380 85 76 104 
-2.372917 1.478077 7.795246 147 162 198 
-2.359569 1.559522 7.669895 124 112 126 
-2.359569 1.559522 7.669895 124 112 126 
-2.369807 1.392526 7.797609 77 86 116 
-2.366779 1.423126 7.770947 138 153 192 
-2.359738 1.247246 7.813877 75 88 112 
-2.377692 0.511803 7.897725 160 174 221 
-2.350751 1.489266 7.778331 63 72 99 
-2.357428 1.220108 7.809639 146 165 204 
-2.357428 1.220108 7.809639 146 165 204 
-2.376371 0.514968 7.932203 163 177 224 
-2.368880 0.520154 7.903618 163 177 222 
-2.340004 0.956441 7.828565 101 91 118 
-2.331840 1.183201 7.798595 80 69 103 
-2.326955 1.121758 7.810959 92 87 110 
-2.383586 -1.775778 8.175212 174 189 241 
-2.359249 -0.691469 8.058338 112 118 162 
-2.283610 1.562528 7.595297 71 62 83 
-2.282220 1.531942 7.625111 81 69 92 
-2.329794 -0.171311 7.989797 123 101 119 
-2.356309 -1.358750 8.143200 74 86 132 
-2.321826 0.071926 7.988419 101 86 120 
-2.355357 -1.389315 8.155109 105 108 147 
-2.282955 1.342136 7.733059 47 37 54 
-2.335527 -0.725763 8.026206 110 90 117 
-2.359386 -1.700961 8.184862 99 117 160 
-2.308181 0.062317 7.931946 104 88 117 
-2.334245 -1.235165 8.099747 120 95 122 
-2.270938 1.206967 7.729980 40 35 58 
-2.301370 -0.910447 8.039862 81 63 87 
-2.232186 1.519980 7.611700 119 108 124 
-2.283276 -0.736461 7.996641 115 96 123 
-2.277423 -1.199074 8.052553 96 77 99 
-2.196986 1.569350 7.511596 47 52 58 
-2.198571 1.184969 7.639408 114 105 132 
-2.200256 0.949867 7.710571 125 116 140 
-2.200256 0.949867 7.710571 125 116 140 
-2.201132 0.725228 7.712350 92 79 104 
-2.240735 -0.939985 7.987597 99 73 90 
-2.212168 -0.800634 7.943993 92 74 89 
-2.204758 -1.387889 7.995996 131 116 142 
-2.165506 -0.241047 7.807561 137 123 141 
-2.159794 -0.969290 7.898890 134 112 123 
-2.135602 0.079239 7.731906 110 98 121 
-2.135602 0.079239 7.731906 110 98 121 
-2.128890 0.084782 7.733957 70 60 86 
-2.152832 -1.209985 7.924846 81 55 76 
-2.128883 -0.249851 7.775975 76 60 81 
-1.914917 1.373349 4.638103 105 116 137 
-2.118357 -0.078485 7.754847 72 61 76 
-2.125437 -0.428856 7.795303 68 56 70 
-2.093221 0.633821 7.642786 71 59 81 
-2.142510 -1.900105 7.996743 92 65 85 
-2.102069 -0.256077 7.751760 88 66 89 
-1.938572 1.272588 5.316761 104 73 95 
-2.108495 -0.909315 7.835432 80 56 69 
-2.108495 -0.909315 7.835432 80 56 69 
-1.933262 1.302808 5.255565 63 37 47 
-2.110458 -1.224618 7.881776 134 108 122 
-2.099765 -1.197570 7.863907 134 111 127 
-2.104004 -1.827074 7.969104 94 71 81 
-2.058257 -0.433675 7.750870 53 44 64 
-1.903278 1.195980 5.319153 73 40 61 
-1.903278 1.195980 5.319153 73 40 61 
-2.050643 -0.964210 7.786059 82 63 76 
-2.068394 -1.890675 7.906089 93 69 93 
-2.068394 -1.890675 7.906089 93 69 93 
-2.064050 -1.739220 7.901344 77 56 73 
-2.062732 -1.905766 7.926972 130 113 127 
-2.043442 -1.234823 7.807477 132 110 123 
-2.048169 -1.664746 7.886457 92 72 96 
-2.048169 -1.664746 7.886457 92 72 96 
-2.004172 0.279642 7.587082 78 64 90 
-1.992542 0.756399 7.519343 117 127 165 
-2.012430 -0.646041 7.703584 137 124 138 
-1.982530 -0.930440 7.726996 81 59 72 
-1.992207 -1.745213 7.829936 98 75 98 
-1.992207 -1.745213 7.829936 98 75 98 
-1.968382 -1.050006 7.747710 77 54 72 
-1.945816 -0.620401 7.662162 64 47 64 
-1.916316 0.060589 7.524537 77 57 80 
-1.916316 0.060589 7.524537 77 57 80 
-1.899779 0.765690 7.443963 50 46 80 
-1.920472 -0.428286 7.598696 122 104 130 
-1.888691 0.882583 7.426168 55 44 66 
-1.937527 -1.953915 7.790924 83 65 86 
-1.809771 1.413271 5.109811 126 134 150 
-1.818055 0.976868 5.237772 69 37 51 
-1.922950 -1.402808 7.711947 80 61 81 
-1.897058 -0.444093 7.573732 46 38 58 
-1.900295 -1.732422 7.740099 128 109 126 
-1.859393 0.590982 7.440201 59 45 55 
-1.871577 -0.448372 7.561181 66 58 85 
-1.855346 0.262905 7.465212 67 52 68 
-1.854076 0.044541 7.480572 52 43 65 
-1.855462 -1.449828 7.689697 83 69 84 
-1.767081 1.183634 5.178597 95 53 72 
-1.755670 1.386270 4.801991 50 37 58 
-1.826979 -0.434819 7.508685 124 110 131 
-1.818369 -1.845935 7.675700 83 64 84 
-1.818369 -1.845935 7.675700 83 64 84 
-1.816998 -1.762471 7.665820 79 59 78 
-1.817981 -1.829731 7.672049 69 58 83 
-1.817981 -1.829731 7.672049 69 58 83 
-1.787239 0.066893 7.424282 118 99 119 
-1.777161 0.723983 7.328669 66 51 74 
-1.788485 -0.791812 7.530656 75 52 60 
-1.755203 0.782212 6.665440 41 28 38 
-1.755203 0.782212 6.665440 41 28 38 
-1.726327 1.062213 5.156042 63 35 51 
-1.726327 1.062213 5.156042 63 35 51 
-1.755601 0.042178 7.377555 53 40 51 
-1.715531 1.179773 5.132839 94 52 68 
-1.728625 0.796800 6.626996 90 82 92 
-1.730527 0.065807 7.383309 129 104 123 
-1.741442 -2.072403 7.612036 85 59 81 
-1.698237 0.824143 6.620673 111 70 85 
-1.697671 0.863113 6.598265 70 37 52 
-1.686675 0.310351 7.299263 65 51 65 
-1.688194 0.028490 7.318608 63 49 61 
-1.695871 -0.906517 7.428536 74 57 80 
-1.668941 0.967126 5.111002 66 32 46 
-1.692149 -1.855975 7.539931 80 61 78 
-1.658504 0.431689 7.246571 48 35 44 
-1.658504 0.431689 7.246571 48 35 44 
-1.670591 -1.055034 7.429335 66 50 71 
-1.673210 -1.450770 7.480490 59 38 45 
-1.635683 0.314692 7.239353 39 27 35 
-1.639156 0.066976 6.725124 105 48 63 
-1.655594 -1.888109 7.523325 78 58 80 
-1.635097 0.080072 6.700277 133 79 92 
-1.625457 -0.116382 7.270120 81 63 88 
-1.619136 -0.329368 7.284702 123 99 113 
-1.624453 1.107245 5.038349 79 45 65 
-1.624453 1.107245 5.038349 79 45 65 
-1.603359 -0.142198 7.274094 119 101 117 
-1.614245 1.244382 4.999114 114 73 92 
-1.614245 1.244382 4.999114 114 73 92 
-1.615301 -1.742496 7.442835 99 68 83 
-1.586432 -1.594592 7.409241 93 75 90 
-1.570600 -0.337121 7.252034 71 51 70 
-1.564595 -0.785862 7.283865 125 112 132 
-1.560009 -0.803379 7.303039 62 49 66 
-1.563670 -1.581019 7.387868 91 67 87 
-1.563510 -1.786373 7.420091 133 111 123 
-1.547196 0.834372 6.441108 72 45 55 
-1.554308 -1.562329 7.385656 80 60 82 
-1.540626 -0.845300 7.283541 131 112 125 
-1.540626 -0.845300 7.283541 131 112 125 
-1.548407 -1.788192 7.385333 77 58 80 
-1.548407 -1.788192 7.385333 77 58 80 
-1.520488 0.743098 6.453252 57 37 45 
-1.556642 1.272855 4.886284 90 47 59 
-1.504306 0.850366 6.417951 56 31 39 
-1.504306 0.850366 6.417951 56 31 39 
-1.498941 -0.868470 7.252437 128 111 130 
-1.480822 -0.325964 7.176168 130 109 126 
-1.487530 0.843335 6.392803 74 51 57 
-1.454203 -0.176689 7.115850 82 59 75 
-1.455196 -0.162325 7.085330 132 120 142 
-1.521592 1.383417 4.741800 108 114 136 
-1.455776 -0.887338 7.206883 79 61 76 
-1.439052 -0.179424 7.108441 87 64 76 
-1.443011 0.629810 6.688840 87 39 47 
-1.502217 1.095838 4.928355 80 49 65 
-1.437988 0.872525 6.345809 86 50 63 
-1.437988 0.872525 6.345809 86 50 63 
-1.434557 -1.931511 7.292321 77 65 86 
-1.434557 -1.931511 7.292321 77 65 86 
-1.421143 -1.088366 7.185331 135 114 127 
-1.425126 0.839586 6.337046 77 41 57 
-1.425126 0.839586 6.337046 77 41 57 
-1.410197 -0.798273 7.143518 130 108 129 
-1.485148 1.081849 4.920609 84 45 62 
-1.400317 -1.096331 7.154570 85 59 72 
-1.387998 -1.808996 7.231716 79 65 78 
-1.357746 0.388169 6.710698 55 25 31 
-1.347579 -0.870477 7.079564 133 113 130 
-1.364142 0.758934 6.289929 73 37 47 
-1.338325 -0.486180 7.035316 129 109 126 
-1.338430 -0.894800 7.088941 63 46 58 
-1.333933 -1.874409 7.199291 128 111 131 
-1.341008 -0.758685 6.514644 76 22 38 
-1.328531 -0.763436 6.518521 141 91 103 
-1.285993 -0.518199 6.994963 69 53 66 
-1.283221 0.510353 6.637074 69 36 45 
-1.274306 -0.974339 7.027148 81 63 88 
-1.274306 -0.974339 7.027148 81 63 88 
-1.272093 -0.517215 6.972689 61 44 62 
-1.272079 -0.994077 7.032365 79 56 79 
-1.260492 -1.100020 7.027262 85 62 83 
-1.260367 -1.476279 7.068903 128 106 127 
-1.254999 -0.516665 6.964326 66 47 62 
-1.249940 -1.506823 7.065803 51 35 46 
-1.249940 -1.506823 7.065803 51 35 46 
-1.243435 -1.446659 7.051127 74 55 80 
-1.228190 0.505483 6.592698 55 22 29 
-1.222689 -0.598362 6.534093 49 26 34 
-1.221189 -0.350728 6.512655 100 72 84 
-1.206787 0.322064 6.578663 66 31 48 
-1.344586 1.221144 4.731537 113 75 95 
-1.344586 1.221144 4.731537 113 75 95 
-1.244307 -1.150400 6.312087 61 32 36 
-1.192864 0.102616 6.606207 55 23 34 
-1.235846 -1.183462 6.273926 69 33 36 
-1.166243 -1.898817 7.027524 128 113 139 
-1.154642 -1.815757 6.994722 72 54 75 
-1.193034 0.815182 6.103774 80 46 61 
-1.137937 -1.683475 6.986170 88 66 79 
-1.130726 -1.517465 6.943363 82 57 79 
-1.152741 0.234472 6.433425 78 32 45 
-1.125417 -0.920772 6.867819 65 40 61 
-1.160789 0.811344 6.079216 95 48 68 
-0.918254 1.138902 8.542253 95 48 68 
-1.093957 -1.520185 6.911868 78 60 81 
-1.108594 0.051965 6.509428 85 44 47 
-1.108594 0.051965 6.509428 85 44 47 
-1.275359 1.254591 4.587906 104 64 73 
-1.070878 -1.937608 6.952700 82 65 90 
-1.073885 -1.983816 6.929399 133 113 131 
-1.094880 -0.321137 6.509687 66 30 35 
-1.073356 -1.823002 6.912264 85 70 96 
-1.073356 -1.823002 6.912264 85 70 96 
-1.070421 -1.522296 6.880681 81 57 81 
-1.136549 -1.216732 6.183239 138 92 105 
-1.052006 -1.925276 6.916919 136 120 139 
-1.116514 -1.264900 6.175610 120 67 74 
-1.062403 0.306217 6.425325 37 18 20 
-1.056914 0.402882 6.444475 52 21 28 
-1.222607 1.020159 4.660748 93 44 57 
-0.997819 -1.712684 6.841205 75 55 74 
-0.997819 -1.712684 6.841205 75 55 74 
-1.062008 0.725462 5.992868 81 42 60 
-0.995474 -1.829210 6.836681 72 59 77 
-1.062592 -1.258063 6.195585 53 23 31 
-1.210123 1.074190 4.639016 103 54 74 
-1.210123 1.074190 4.639016 103 54 74 
-1.040491 -0.796938 6.181191 118 82 96 
-1.040491 -0.796938 6.181191 118 82 96 
-1.041615 -0.808316 6.173763 63 32 39 
-1.036651 -0.625242 6.147696 135 81 96 
-1.197753 1.049557 4.626274 100 52 64 
-0.948966 -1.964956 6.815555 75 60 85 
-1.191328 1.242414 4.531925 79 40 49 
-1.028843 0.905558 5.856771 78 54 63 
-0.989739 0.087769 6.223063 58 27 33 
-1.184412 1.314941 4.523584 70 54 70 
-1.005734 -0.652718 6.098232 141 84 101 
-0.979297 -0.102044 6.199659 51 20 28 
-0.923816 -1.956565 6.768982 106 97 119 
-0.967504 0.397702 6.177046 126 73 81 
-0.989090 -1.275875 6.151591 61 29 34 
-0.957760 0.305840 6.169817 70 43 58 
-0.953746 -0.102840 6.180850 106 78 99 
-0.962494 -0.994466 6.189463 108 76 100 
-0.960794 -0.635634 6.123106 131 80 97 
-0.935606 0.360927 6.136757 143 88 105 
-0.931298 0.378196 6.152323 98 47 55 
-0.939258 -1.287608 6.153330 69 25 36 
-0.916078 0.073900 6.147646 59 22 32 
-0.907588 0.303028 6.130538 64 33 40 
-0.854754 -1.877354 6.703723 130 117 135 
-0.912458 -0.849030 6.134270 36 18 18 
-0.832705 -1.854224 6.686770 64 48 67 
-0.880473 0.380631 6.091519 62 22 32 
-0.924915 0.860427 5.749898 137 105 120 
-0.894069 0.783649 5.812518 87 44 61 
-0.849621 -0.499516 6.136177 66 36 46 
-1.055442 1.206518 4.566921 129 85 110 
-1.055442 1.206518 4.566921 129 85 110 
-0.825810 -0.647084 6.121521 57 27 37 
-0.849728 -1.277808 5.987455 137 83 97 
-0.750909 -1.860761 6.595294 71 54 71 
-1.034897 1.054050 4.608661 85 55 73 
-0.839666 0.303794 5.803986 138 135 131 
-0.800998 -0.093307 6.045843 143 121 109 
-0.824869 0.230481 5.875673 156 141 133 
-0.817540 0.376752 5.896548 104 94 76 
-1.028258 1.204541 4.558100 127 87 106 
-0.817497 -1.302021 6.007431 87 46 53 
-0.817497 -1.302021 6.007431 87 46 53 
-0.817240 -1.303256 6.008364 89 47 55 
-0.794298 -0.110792 6.039894 139 118 102 
-0.829202 0.703222 5.755374 79 46 66 
-0.805836 0.392870 5.873273 37 21 22 
-0.782002 -0.130774 6.043868 143 126 108 
-1.017095 1.240401 4.528198 101 55 66 
-0.773090 -0.148024 6.027825 141 114 102 
-0.762130 0.122149 6.012083 65 30 35 
-0.754932 -0.240993 6.058960 85 66 49 
-0.754932 -0.240993 6.058960 85 66 49 
-0.797274 0.306507 5.764176 186 181 167 
-0.797274 0.306507 5.764176 186 181 167 
-0.686907 -1.873521 6.538082 85 67 95 
-0.686907 -1.873521 6.538082 85 67 95 
-0.792953 0.699112 5.726642 78 43 60 
-0.785678 0.212977 5.794024 138 126 125 
-0.790227 0.261608 5.764841 126 113 119 
-0.764749 0.004383 5.895770 214 202 178 
-0.754538 -0.106210 5.939616 197 186 166 
-0.768716 0.206985 5.793762 198 193 188 
-0.756174 -1.301679 5.964076 140 86 99 
-0.770351 0.279193 5.758689 157 154 143 
-0.729987 -0.612265 6.037021 69 40 49 
-0.729987 -0.612265 6.037021 69 40 49 
-0.740842 -0.108493 5.929199 192 184 165 
-0.744666 0.042092 5.875573 140 122 100 
-0.727331 -0.608126 6.007264 72 36 48 
-0.729579 -0.049467 5.933100 106 78 56 
-0.720617 -0.274233 5.976266 127 107 97 
-0.732667 0.025656 5.878549 166 153 134 
-0.747546 -1.187792 5.855061 44 25 23 
-0.641448 -1.865199 6.477238 81 49 70 
-0.947149 0.919484 4.619764 92 52 72 
-0.710686 -0.282894 5.967099 133 111 92 
-0.948048 1.137542 4.591201 84 49 70 
-0.693035 -0.523842 5.993421 50 22 23 
-0.741173 0.685278 5.653475 78 50 64 
-0.716091 -1.307727 5.895989 86 42 57 
-0.716091 -1.307727 5.895989 86 42 57 
-0.717216 0.677978 5.643323 141 96 115 
-0.659138 0.144963 5.918165 162 143 113 
-0.654188 -1.594854 6.052110 139 114 128 
-0.643906 0.146515 5.925498 183 167 134 
-0.642750 -0.238627 5.957729 40 18 17 
-0.633143 0.170461 5.947915 174 157 132 
-0.640375 -0.011259 5.894869 192 178 149 
-0.625028 0.158379 5.930143 190 177 145 
-0.886954 1.204115 4.562288 122 82 100 
-0.639361 -1.640720 5.958174 152 99 118 
-0.639647 -1.639433 5.957282 150 94 115 
-0.677560 0.749240 5.595321 76 45 59 
-0.656465 -1.312021 5.815217 63 31 47 
-0.545434 -1.884513 6.342528 34 25 27 
-0.618054 -1.504305 5.958493 77 29 41 
-0.650928 0.760891 5.580033 84 44 59 
-0.618083 0.333320 5.763858 99 73 71 
-0.598891 -0.220449 5.862070 56 26 28 
-0.624183 -0.876692 5.748589 49 23 30 
-0.578515 -0.441043 5.861723 49 21 20 
-0.605550 -0.823459 5.751362 107 73 85 
-0.625250 0.793677 5.550938 88 55 70 
-0.625250 0.793677 5.550938 88 55 70 
-0.620509 0.757185 5.549590 88 50 67 
-0.578929 0.316224 5.715253 192 180 168 
-0.587261 -0.875241 5.750285 57 21 35 
-0.571183 0.313271 5.715294 187 175 163 
-0.553580 -0.411911 5.831062 46 18 17 
-0.563437 0.360962 5.730314 121 110 114 
-0.805970 1.202576 4.562690 134 86 105 
-0.533111 -0.361836 5.797209 125 74 84 
-0.511969 -1.507544 5.837045 153 100 117 
-0.511969 -1.507544 5.837045 153 100 117 
-0.498322 0.338607 5.713670 60 20 27 
-0.515438 -0.879628 5.655075 79 42 49 
-0.557522 0.849828 5.380014 80 57 67 
-0.557522 0.849828 5.380014 80 57 67 
-0.536270 0.694018 5.478086 68 42 56 
-0.486244 0.342707 5.691439 132 76 85 
